VERSION 0.7
FIELDS x y z rgb
SIZE 4 4 4 4
TYPE F F F F
COUNT 1 1 1 1
WIDTH 886
HEIGHT 1
VIEWPOINT 0.0 0.0 0.0 1.0 0.0 0.0 0.0
POINTS 886
DATA ascii
-0.0129561424 -0.7683256865 0.7477687001 0.0000000000
-0.0174915791 -0.7709710002 0.7506428361 0.0000000000
-0.0206098557 -0.7735651135 0.7526189089 0.0000000000
-0.0231993198 -0.7761352658 0.7542598248 0.0000000000
-0.0254029036 -0.7786872983 0.7556561828 0.0000000000
-0.0271588564 -0.7812228203 0.7567689419 0.0000000000
-0.0285557508 -0.7837458253 0.7576541901 0.0000000000
-0.0296272039 -0.7862590551 0.7583330870 0.0000000000
-0.0303269625 -0.7887641191 0.7587766051 0.0000000000
-0.0307589769 -0.7912642360 0.7590503693 0.0000000000
-0.0310261250 -0.7937616110 0.7592197061 0.0000000000
-0.0312124491 -0.7962575555 0.7593376040 0.0000000000
-0.0312808752 -0.7987526059 0.7593810558 0.0000000000
-0.0311415195 -0.8012475967 0.7592926621 0.0000000000
-0.0308034420 -0.8037437797 0.7590785027 0.0000000000
-0.0303004980 -0.8062423468 0.7587597966 0.0000000000
-0.0295606852 -0.8087447882 0.7582909465 0.0000000000
-0.0284550190 -0.8112539053 0.7575903535 0.0000000000
-0.0270994902 -0.8137706518 0.7567313313 0.0000000000
-0.0254640579 -0.8162971139 0.7556949258 0.0000000000
-0.0232533216 -0.8188397288 0.7542940378 0.0000000000
-0.0204204321 -0.8214031458 0.7524988055 0.0000000000
-0.0161110163 -0.8240085244 0.7497679591 0.0000000000
-0.0094170570 -0.8266857862 0.7455260158 0.0000000000
-0.0008168221 -0.7654002309 0.7370436192 0.0000000000
-0.0133113861 -0.7682969570 0.7449930310 0.0000000000
-0.0178012848 -0.7709435821 0.7478496432 0.0000000000
-0.0210437775 -0.7735430002 0.7499125600 0.0000000000
-0.0234957933 -0.7761124969 0.7514726520 0.0000000000
-0.0255848169 -0.7786648870 0.7528017759 0.0000000000
-0.0273367167 -0.7812029719 0.7539163828 0.0000000000
-0.0286755562 -0.7837278843 0.7547682524 0.0000000000
-0.0297307968 -0.7862436771 0.7554395199 0.0000000000
-0.0304641724 -0.7887519002 0.7559061646 0.0000000000
-0.0309265852 -0.7912549376 0.7562003136 0.0000000000
-0.0311859846 -0.7937549353 0.7563654780 0.0000000000
-0.0313355923 -0.7962534428 0.7564606071 0.0000000000
-0.0313771963 -0.7987511754 0.7564870715 0.0000000000
-0.0312436819 -0.8012489676 0.7564021349 0.0000000000
-0.0309133530 -0.8037479520 0.7561919093 0.0000000000
-0.0304130316 -0.8062492609 0.7558736205 0.0000000000
-0.0296651125 -0.8087545633 0.7553977370 0.0000000000
-0.0285484791 -0.8112666011 0.7546873093 0.0000000000
-0.0271607637 -0.8137865663 0.7538043261 0.0000000000
-0.0254709721 -0.8163166642 0.7527293563 0.0000000000
-0.0231468678 -0.8188642263 0.7512506247 0.0000000000
-0.0201888084 -0.8214331865 0.7493686080 0.0000000000
-0.0160183907 -0.8240393996 0.7467153072 0.0000000000
-0.0097007751 -0.8267115951 0.7426958680 0.0000000000
-0.0022481680 -0.7653997540 0.7349181771 0.0000000000
-0.0133324862 -0.7682592273 0.7419984341 0.0000000000
-0.0179301500 -0.7709116340 0.7449353337 0.0000000000
-0.0214030743 -0.7735190988 0.7471536994 0.0000000000
-0.0239102840 -0.7760920525 0.7487552166 0.0000000000
-0.0258729458 -0.7786443830 0.7500089407 0.0000000000
-0.0274972916 -0.7811828852 0.7510464787 0.0000000000
-0.0287760496 -0.7837095857 0.7518633604 0.0000000000
-0.0297873020 -0.7862277031 0.7525092363 0.0000000000
-0.0306035280 -0.7887396216 0.7530305982 0.0000000000
-0.0311800241 -0.7912462354 0.7533988953 0.0000000000
-0.0314909220 -0.7937489748 0.7535974979 0.0000000000
-0.0316406488 -0.7962498665 0.7536930442 0.0000000000
-0.0316308737 -0.7987499833 0.7536869049 0.0000000000
-0.0314131975 -0.8012502789 0.7535477877 0.0000000000
-0.0309946537 -0.8037522435 0.7532804608 0.0000000000
-0.0304123163 -0.8062568307 0.7529084682 0.0000000000
-0.0295890570 -0.8087657094 0.7523826361 0.0000000000
-0.0284104347 -0.8112815022 0.7516297102 0.0000000000
-0.0269844532 -0.8138052821 0.7507188916 0.0000000000
-0.0252746344 -0.8163391352 0.7496266961 0.0000000000
-0.0229603052 -0.8188899755 0.7481483817 0.0000000000
-0.0201510191 -0.8214597702 0.7463539839 0.0000000000
-0.0160759687 -0.8240672350 0.7437509298 0.0000000000
-0.0098229647 -0.8267411590 0.7397567034 0.0000000000
-0.0050817728 -0.7654398680 0.7336920500 0.0000000000
-0.0131219625 -0.7682151794 0.7388482094 0.0000000000
-0.0179532766 -0.7708770037 0.7419466376 0.0000000000
-0.0216234922 -0.7734919786 0.7443003058 0.0000000000
-0.0242077112 -0.7760691643 0.7459576130 0.0000000000
-0.0261802673 -0.7786241174 0.7472226024 0.0000000000
-0.0277183056 -0.7811636329 0.7482089400 0.0000000000
-0.0288755894 -0.7836912870 0.7489510775 0.0000000000
-0.0298225880 -0.7862114906 0.7495585084 0.0000000000
-0.0306760073 -0.7887266874 0.7501057386 0.0000000000
-0.0313878059 -0.7912372351 0.7505623102 0.0000000000
-0.0318113565 -0.7937431335 0.7508338690 0.0000000000
-0.0320060253 -0.7962465286 0.7509586811 0.0000000000
-0.0319623947 -0.7987487912 0.7509307265 0.0000000000
-0.0316069126 -0.8012515903 0.7507027388 0.0000000000
-0.0310029984 -0.8037567139 0.7503154278 0.0000000000
-0.0302194357 -0.8062654138 0.7498129606 0.0000000000
-0.0293389559 -0.8087781668 0.7492483258 0.0000000000
-0.0282052755 -0.8112971187 0.7485212088 0.0000000000
-0.0268338919 -0.8138237596 0.7476418018 0.0000000000
-0.0251687765 -0.8163603544 0.7465739846 0.0000000000
-0.0229147673 -0.8189135790 0.7451284528 0.0000000000
-0.0201350451 -0.8214859962 0.7433457971 0.0000000000
-0.0160921812 -0.8240960240 0.7407531142 0.0000000000
-0.0103366375 -0.8267619610 0.7370620370 0.0000000000
-0.0073486567 -0.7654636502 0.7321079969 0.0000000000
-0.0138841867 -0.7681971192 0.7363159060 0.0000000000
-0.0179858208 -0.7708425522 0.7389568090 0.0000000000
-0.0217505693 -0.7734627724 0.7413806915 0.0000000000
-0.0243794918 -0.7760437131 0.7430733442 0.0000000000
-0.0263973475 -0.7786021829 0.7443726063 0.0000000000
-0.0279579163 -0.7811446786 0.7453773618 0.0000000000
-0.0290673971 -0.7836741805 0.7460916638 0.0000000000
-0.0299322605 -0.7861960530 0.7466485500 0.0000000000
-0.0307283401 -0.7887135744 0.7471610904 0.0000000000
-0.0314335823 -0.7912269831 0.7476152182 0.0000000000
-0.0319343805 -0.7937362194 0.7479376197 0.0000000000
-0.0322118998 -0.7962426543 0.7481163144 0.0000000000
-0.0321786404 -0.7987475395 0.7480949163 0.0000000000
-0.0317405462 -0.8012529612 0.7478127480 0.0000000000
-0.0309760571 -0.8037613630 0.7473205924 0.0000000000
-0.0301692486 -0.8062732816 0.7468011975 0.0000000000
-0.0293238163 -0.8087888956 0.7462568283 0.0000000000
-0.0281958580 -0.8113108873 0.7455304861 0.0000000000
-0.0267868042 -0.8138410449 0.7446233034 0.0000000000
-0.0250556469 -0.8163817525 0.7435087562 0.0000000000
-0.0227878094 -0.8189384937 0.7420485020 0.0000000000
-0.0199061632 -0.8215162158 0.7401932478 0.0000000000
-0.0164145231 -0.8241186738 0.7379450798 0.0000000000
-0.0113778114 -0.8267709017 0.7347022295 0.0000000000
-0.0083615780 -0.7654511333 0.7297176719 0.0000000000
-0.0150222778 -0.7681891322 0.7340230942 0.0000000000
-0.0184252262 -0.7708180547 0.7362228036 0.0000000000
-0.0218157768 -0.7734320760 0.7384145260 0.0000000000
-0.0244559050 -0.7760161757 0.7401210666 0.0000000000
-0.0264511108 -0.7785772085 0.7414108515 0.0000000000
-0.0280617476 -0.7811235189 0.7424519658 0.0000000000
-0.0292743444 -0.7836573124 0.7432357073 0.0000000000
-0.0301218033 -0.7861815691 0.7437835932 0.0000000000
-0.0308082104 -0.7887006402 0.7442272902 0.0000000000
-0.0313968658 -0.7912160158 0.7446077466 0.0000000000
-0.0319014788 -0.7937284708 0.7449340224 0.0000000000
-0.0322400331 -0.7962381840 0.7451528311 0.0000000000
-0.0322424173 -0.7987460494 0.7451543212 0.0000000000
-0.0317796469 -0.8012544513 0.7448552847 0.0000000000
-0.0310238600 -0.8037657738 0.7443666458 0.0000000000
-0.0302479267 -0.8062804341 0.7438651323 0.0000000000
-0.0293780565 -0.8087991476 0.7433028221 0.0000000000
-0.0281879902 -0.8113247156 0.7425335050 0.0000000000
-0.0266890526 -0.8138589859 0.7415646315 0.0000000000
-0.0248992443 -0.8164038062 0.7404075861 0.0000000000
-0.0226062536 -0.8189644217 0.7389254570 0.0000000000
-0.0199179649 -0.8215420842 0.7371877432 0.0000000000
-0.0171083212 -0.8241337538 0.7353716493 0.0000000000
-0.0122977495 -0.8267825842 0.7322619557 0.0000000000
-0.0081149340 -0.7654020190 0.7265076637 0.0000000000
-0.0157943964 -0.7681712508 0.7314913273 0.0000000000
-0.0189254284 -0.7707949877 0.7335232496 0.0000000000
-0.0218213797 -0.7733998895 0.7354025841 0.0000000000
-0.0244187117 -0.7759863138 0.7370882034 0.0000000000
-0.0264191628 -0.7785506248 0.7383863926 0.0000000000
-0.0280673504 -0.7811006904 0.7394560575 0.0000000000
-0.0294123888 -0.7836393714 0.7403289080 0.0000000000
-0.0303316116 -0.7861672640 0.7409254909 0.0000000000
-0.0309898853 -0.7886886597 0.7413526177 0.0000000000
-0.0314972401 -0.7912061214 0.7416819334 0.0000000000
-0.0319418907 -0.7937210798 0.7419705391 0.0000000000
-0.0322685242 -0.7962337136 0.7421824932 0.0000000000
-0.0322654247 -0.7987445593 0.7421804667 0.0000000000
-0.0317769051 -0.8012560010 0.7418634295 0.0000000000
-0.0310543776 -0.8037702441 0.7413945198 0.0000000000
-0.0303989649 -0.8062872887 0.7409692407 0.0000000000
-0.0295801163 -0.8088083267 0.7404378057 0.0000000000
-0.0283869505 -0.8113365173 0.7396634817 0.0000000000
-0.0268340111 -0.8138741255 0.7386557460 0.0000000000
-0.0249620676 -0.8164228201 0.7374407649 0.0000000000
-0.0228251219 -0.8189839125 0.7360540032 0.0000000000
-0.0203875303 -0.8215596080 0.7344720960 0.0000000000
-0.0176608562 -0.8241517544 0.7327026129 0.0000000000
-0.0126297474 -0.8268076181 0.7294375896 0.0000000000
-0.0084456205 -0.7653695941 0.7236650586 0.0000000000
-0.0156865120 -0.7681296468 0.7283827662 0.0000000000
-0.0192066431 -0.7707664371 0.7306761742 0.0000000000
-0.0220521688 -0.7733728290 0.7325301766 0.0000000000
-0.0243918896 -0.7759565711 0.7340545058 0.0000000000
-0.0263581276 -0.7785234451 0.7353355885 0.0000000000
-0.0280421972 -0.7810772657 0.7364329100 0.0000000000
-0.0294719934 -0.7836203575 0.7373644114 0.0000000000
-0.0305042267 -0.7861524820 0.7380369306 0.0000000000
-0.0312564373 -0.7886775136 0.7385270000 0.0000000000
-0.0318115950 -0.7911978364 0.7388887405 0.0000000000
-0.0322207212 -0.7937149405 0.7391553521 0.0000000000
-0.0324712992 -0.7962297797 0.7393185496 0.0000000000
-0.0324068069 -0.7987431884 0.7392765284 0.0000000000
-0.0319271088 -0.8012573719 0.7389640212 0.0000000000
-0.0313007832 -0.8037740588 0.7385559678 0.0000000000
-0.0307279825 -0.8062931299 0.7381827235 0.0000000000
-0.0299615860 -0.8088161349 0.7376834154 0.0000000000
-0.0287849903 -0.8113464713 0.7369167805 0.0000000000
-0.0271970034 -0.8138867021 0.7358822227 0.0000000000
-0.0253967047 -0.8164367080 0.7347091436 0.0000000000
-0.0233696699 -0.8189981580 0.7333886027 0.0000000000
-0.0208370686 -0.8215776086 0.7317385077 0.0000000000
-0.0178689957 -0.8241768479 0.7298046947 0.0000000000
-0.0126558542 -0.8268396258 0.7264081240 0.0000000000
-0.0087697506 -0.7653368711 0.7208125591 0.0000000000
-0.0151108503 -0.7680753469 0.7249602675 0.0000000000
-0.0189976692 -0.7707256675 0.7275026441 0.0000000000
-0.0222448111 -0.7733447552 0.7296266556 0.0000000000
-0.0246608257 -0.7759328485 0.7312068939 0.0000000000
-0.0265264511 -0.7785003781 0.7324272394 0.0000000000
-0.0280902386 -0.7810550332 0.7334500551 0.0000000000
-0.0295062065 -0.7836008668 0.7343762517 0.0000000000
-0.0306115150 -0.7861369252 0.7350992560 0.0000000000
-0.0314497948 -0.7886655927 0.7356476188 0.0000000000
-0.0320996046 -0.7911892533 0.7360726595 0.0000000000
-0.0325527191 -0.7937090993 0.7363690138 0.0000000000
-0.0327818394 -0.7962262034 0.7365188599 0.0000000000
-0.0327543020 -0.7987420559 0.7365008593 0.0000000000
-0.0324026346 -0.8012583852 0.7362707853 0.0000000000
-0.0318602324 -0.8037768006 0.7359160781 0.0000000000
-0.0312501192 -0.8062979579 0.7355169654 0.0000000000
-0.0303624868 -0.8088238835 0.7349363565 0.0000000000
-0.0291486979 -0.8113567233 0.7341424823 0.0000000000
-0.0276520252 -0.8138982058 0.7331634760 0.0000000000
-0.0259134769 -0.8164494634 0.7320262790 0.0000000000
-0.0238038301 -0.8190143108 0.7306463718 0.0000000000
-0.0211032629 -0.8215990067 0.7288799286 0.0000000000
-0.0178911686 -0.8242058158 0.7267788649 0.0000000000
-0.0123906136 -0.8268783092 0.7231809497 0.0000000000
-0.0092468262 -0.7653084993 0.7180545330 0.0000000000
-0.0146900415 -0.7680251002 0.7216290236 0.0000000000
-0.0186473131 -0.7706813216 0.7242276669 0.0000000000
-0.0220780373 -0.7733085155 0.7264805436 0.0000000000
-0.0247815847 -0.7759059668 0.7282559872 0.0000000000
-0.0268055201 -0.7784793377 0.7295851111 0.0000000000
-0.0283640623 -0.7810363770 0.7306084633 0.0000000000
-0.0296472311 -0.7835828662 0.7314511538 0.0000000000
-0.0307109356 -0.7861211896 0.7321496606 0.0000000000
-0.0315589905 -0.7886528373 0.7327065468 0.0000000000
-0.0322747231 -0.7911798358 0.7331765890 0.0000000000
-0.0328278542 -0.7937029004 0.7335397601 0.0000000000
-0.0331479311 -0.7962227464 0.7337499857 0.0000000000
-0.0332263708 -0.7987410426 0.7338015437 0.0000000000
-0.0329802036 -0.8012592793 0.7336397767 0.0000000000
-0.0324388742 -0.8037795424 0.7332843542 0.0000000000
-0.0316896439 -0.8063032627 0.7327923775 0.0000000000
-0.0306160450 -0.8088327050 0.7320873737 0.0000000000
-0.0293813944 -0.8113682866 0.7312765718 0.0000000000
-0.0280022621 -0.8139109612 0.7303708792 0.0000000000
-0.0262999535 -0.8164641261 0.7292530537 0.0000000000
-0.0241113901 -0.8190324903 0.7278158665 0.0000000000
-0.0212810040 -0.8216220737 0.7259572148 0.0000000000
-0.0177741051 -0.8242377043 0.7236542702 0.0000000000
-0.0124483109 -0.8269097209 0.7201569676 0.0000000000
-0.0097035170 -0.7652795315 0.7152782083 0.0000000000
-0.0149736404 -0.7679937482 0.7187525630 0.0000000000
-0.0185899734 -0.7706441283 0.7211366296 0.0000000000
-0.0219745636 -0.7732735872 0.7233679891 0.0000000000
-0.0246394873 -0.7758736610 0.7251249552 0.0000000000
-0.0268546343 -0.7784539461 0.7265853882 0.0000000000
-0.0285798311 -0.7810167670 0.7277227044 0.0000000000
-0.0298144817 -0.7835651636 0.7285366654 0.0000000000
-0.0307940245 -0.7861052752 0.7291824222 0.0000000000
-0.0316187143 -0.7886396050 0.7297260761 0.0000000000
-0.0323395729 -0.7911695838 0.7302013040 0.0000000000
-0.0329492092 -0.7936958671 0.7306032777 0.0000000000
-0.0333619118 -0.7962188721 0.7308753133 0.0000000000
-0.0335298777 -0.7987397909 0.7309861183 0.0000000000
-0.0332994461 -0.8012604713 0.7308341265 0.0000000000
-0.0327011347 -0.8037832975 0.7304396629 0.0000000000
-0.0318191051 -0.8063102961 0.7298582196 0.0000000000
-0.0307229757 -0.8088426590 0.7291356325 0.0000000000
-0.0296094418 -0.8113799691 0.7284014225 0.0000000000
-0.0282750130 -0.8139246702 0.7275217175 0.0000000000
-0.0265238285 -0.8164810538 0.7263672352 0.0000000000
-0.0241550207 -0.8190549612 0.7248054743 0.0000000000
-0.0211435556 -0.8216509819 0.7228201628 0.0000000000
-0.0176957846 -0.8242688775 0.7205471992 0.0000000000
-0.0127649307 -0.8269354105 0.7172965407 0.0000000000
-0.0044634342 -0.8297069669 0.7118235826 0.0000000000
-0.0086188316 -0.7652054429 0.7114764452 0.0000000000
-0.0156528950 -0.7679730058 0.7161319852 0.0000000000
-0.0188958645 -0.7706158757 0.7182784081 0.0000000000
-0.0220156908 -0.7732418776 0.7203432322 0.0000000000
-0.0245339870 -0.7758420110 0.7220100164 0.0000000000
-0.0267822742 -0.7784262896 0.7234980464 0.0000000000
-0.0286792517 -0.7809951901 0.7247536182 0.0000000000
-0.0299655199 -0.7835472226 0.7256048918 0.0000000000
-0.0308713913 -0.7860892415 0.7262044549 0.0000000000
-0.0316333771 -0.7886258364 0.7267087102 0.0000000000
-0.0323427916 -0.7911588550 0.7271783352 0.0000000000
-0.0330147743 -0.7936885357 0.7276230454 0.0000000000
-0.0335056782 -0.7962146997 0.7279480100 0.0000000000
-0.0336809158 -0.7987384200 0.7280639410 0.0000000000
-0.0334318876 -0.8012618423 0.7278990746 0.0000000000
-0.0327718258 -0.8037877083 0.7274622917 0.0000000000
-0.0318663120 -0.8063177466 0.7268628478 0.0000000000
-0.0308799744 -0.8088522553 0.7262101173 0.0000000000
-0.0297987461 -0.8113920093 0.7254945040 0.0000000000
-0.0283730030 -0.8139405251 0.7245509624 0.0000000000
-0.0264644623 -0.8165020347 0.7232877016 0.0000000000
-0.0240004063 -0.8190807700 0.7216569185 0.0000000000
-0.0209894180 -0.8216802478 0.7196639776 0.0000000000
-0.0175852776 -0.8243008256 0.7174108624 0.0000000000
-0.0131572485 -0.8269593716 0.7144802213 0.0000000000
-0.0060685873 -0.8297032714 0.7097885013 0.0000000000
-0.0042738914 -0.7650358081 0.7054952979 0.0000000000
-0.0160672665 -0.7679450512 0.7133313417 0.0000000000
-0.0194323063 -0.7705932856 0.7155672908 0.0000000000
-0.0222164392 -0.7732136846 0.7174172997 0.0000000000
-0.0245517492 -0.7758128643 0.7189688683 0.0000000000
-0.0268319845 -0.7784008384 0.7204840183 0.0000000000
-0.0287533998 -0.7809731364 0.7217607498 0.0000000000
-0.0300830603 -0.7835287452 0.7226442695 0.0000000000
-0.0310106277 -0.7860738635 0.7232605815 0.0000000000
-0.0318057537 -0.7886136174 0.7237888575 0.0000000000
-0.0325051546 -0.7911492586 0.7242535353 0.0000000000
-0.0331686735 -0.7936816216 0.7246944308 0.0000000000
-0.0336683989 -0.7962105870 0.7250266075 0.0000000000
-0.0337843895 -0.7987369895 0.7251035571 0.0000000000
-0.0334353447 -0.8012633920 0.7248717546 0.0000000000
-0.0327005386 -0.8037925959 0.7243834138 0.0000000000
-0.0318247080 -0.8063256741 0.7238014340 0.0000000000
-0.0309196711 -0.8088628054 0.7232001424 0.0000000000
-0.0298075676 -0.8114058971 0.7224612236 0.0000000000
-0.0283173323 -0.8139582276 0.7214710116 0.0000000000
-0.0263559818 -0.8165237308 0.7201677561 0.0000000000
-0.0239146948 -0.8191055059 0.7185456753 0.0000000000
-0.0207630396 -0.8217109442 0.7164514661 0.0000000000
-0.0175144672 -0.8243319988 0.7142930031 0.0000000000
-0.0137028694 -0.8269799352 0.7117604017 0.0000000000
-0.0027738810 -0.7649490833 0.7013815641 0.0000000000
-0.0156837702 -0.7678954005 0.7099931836 0.0000000000
-0.0196723938 -0.7705632448 0.7126538754 0.0000000000
-0.0224616528 -0.7731865048 0.7145144343 0.0000000000
-0.0246367455 -0.7757849693 0.7159653306 0.0000000000
-0.0269752741 -0.7783770561 0.7175252438 0.0000000000
-0.0289175510 -0.7809525132 0.7188208103 0.0000000000
-0.0301709175 -0.7835098505 0.7196570039 0.0000000000
-0.0311734676 -0.7860587239 0.7203257680 0.0000000000
-0.0321304798 -0.7886028886 0.7209641337 0.0000000000
-0.0328701735 -0.7911411524 0.7214576006 0.0000000000
-0.0333617926 -0.7936749458 0.7217855453 0.0000000000
-0.0337340832 -0.7962061763 0.7220337987 0.0000000000
-0.0337390900 -0.7987353802 0.7220371962 0.0000000000
-0.0332323313 -0.8012651801 0.7216990590 0.0000000000
-0.0324022770 -0.8037981987 0.7211454511 0.0000000000
-0.0316339731 -0.8063344359 0.7206328511 0.0000000000
-0.0308753252 -0.8088740110 0.7201268077 0.0000000000
-0.0297040939 -0.8114208579 0.7193456292 0.0000000000
-0.0281327963 -0.8139775395 0.7182974815 0.0000000000
-0.0262508392 -0.8165454268 0.7170420885 0.0000000000
-0.0238070488 -0.8191306591 0.7154119015 0.0000000000
-0.0208938122 -0.8217350841 0.7134686112 0.0000000000
-0.0179131031 -0.8243535757 0.7114802599 0.0000000000
-0.0139247179 -0.8270079494 0.7088198662 0.0000000000
-0.0046570301 -0.7649613023 0.6995181441 0.0000000000
-0.0146896839 -0.7678290606 0.7062366009 0.0000000000
-0.0193862915 -0.7705200315 0.7093816996 0.0000000000
-0.0225038528 -0.7731545568 0.7114695311 0.0000000000
-0.0246931314 -0.7757564187 0.7129355669 0.0000000000
-0.0269519091 -0.7783501148 0.7144481540 0.0000000000
-0.0290154219 -0.7809307575 0.7158301473 0.0000000000
-0.0302408934 -0.7834905982 0.7166506648 0.0000000000
-0.0312556028 -0.7860426307 0.7173302770 0.0000000000
-0.0323501825 -0.7885910273 0.7180632949 0.0000000000
-0.0331158638 -0.7911322117 0.7185760140 0.0000000000
-0.0334337950 -0.7936675549 0.7187888622 0.0000000000
-0.0335724354 -0.7962009907 0.7188817263 0.0000000000
-0.0334255695 -0.7987335324 0.7187833786 0.0000000000
-0.0328611135 -0.8012671471 0.7184054255 0.0000000000
-0.0321669579 -0.8038036227 0.7179405093 0.0000000000
-0.0315411091 -0.8063427210 0.7175214291 0.0000000000
-0.0306968689 -0.8088862300 0.7169561386 0.0000000000
-0.0293186903 -0.8114386201 0.7160331607 0.0000000000
-0.0277243853 -0.8139995337 0.7149654627 0.0000000000
-0.0259952545 -0.8165693283 0.7138075829 0.0000000000
-0.0237820148 -0.8191545010 0.7123254538 0.0000000000
-0.0212954283 -0.8217543364 0.7106602192 0.0000000000
-0.0180742741 -0.8243800998 0.7085031271 0.0000000000
-0.0139679909 -0.8270400763 0.7057532668 0.0000000000
-0.0059617758 -0.7649565935 0.6972678304 0.0000000000
-0.0137188435 -0.7677631974 0.7024827600 0.0000000000
-0.0186877251 -0.7704663873 0.7058233023 0.0000000000
-0.0223288536 -0.7731176615 0.7082712054 0.0000000000
-0.0247812271 -0.7757285237 0.7099198103 0.0000000000
-0.0268923044 -0.7783223987 0.7113391161 0.0000000000
-0.0288175344 -0.7809041142 0.7126334310 0.0000000000
-0.0301747322 -0.7834693789 0.7135457397 0.0000000000
-0.0311363935 -0.7860240936 0.7141923904 0.0000000000
-0.0320737362 -0.7885743380 0.7148224711 0.0000000000
-0.0327280760 -0.7911183238 0.7152623534 0.0000000000
-0.0329792500 -0.7936573029 0.7154312730 0.0000000000
-0.0330952406 -0.7961947918 0.7155092359 0.0000000000
-0.0329623222 -0.7987314463 0.7154198289 0.0000000000
-0.0325694084 -0.8012689948 0.7151557207 0.0000000000
-0.0320944786 -0.8038085103 0.7148364782 0.0000000000
-0.0314730406 -0.8063508868 0.7144186497 0.0000000000
-0.0304298401 -0.8088991642 0.7137173414 0.0000000000
-0.0289833546 -0.8114559054 0.7127448320 0.0000000000
-0.0274394751 -0.8140201569 0.7117069364 0.0000000000
-0.0256687403 -0.8165943027 0.7105164528 0.0000000000
-0.0237194300 -0.8191790581 0.7092060447 0.0000000000
-0.0212837458 -0.8217812777 0.7075685859 0.0000000000
-0.0179373026 -0.8244128823 0.7053188682 0.0000000000
-0.0140979290 -0.8270702958 0.7027375698 0.0000000000
-0.0061830282 -0.7649200559 0.6942855120 0.0000000000
-0.0137929916 -0.7677255869 0.6994216442 0.0000000000
-0.0181057453 -0.7704154849 0.7023323178 0.0000000000
-0.0216212273 -0.7730684280 0.7047048807 0.0000000000
-0.0246920586 -0.7756968141 0.7067773938 0.0000000000
-0.0269711018 -0.7782972455 0.7083155513 0.0000000000
-0.0287430286 -0.7808794379 0.7095113993 0.0000000000
-0.0299339294 -0.7834456563 0.7103151679 0.0000000000
-0.0307738781 -0.7860025764 0.7108820081 0.0000000000
-0.0314617157 -0.7885543108 0.7113462687 0.0000000000
-0.0320025682 -0.7911018729 0.7117112875 0.0000000000
-0.0324083567 -0.7936464548 0.7119851708 0.0000000000
-0.0327048302 -0.7961888313 0.7121852636 0.0000000000
-0.0326917171 -0.7987295985 0.7121764421 0.0000000000
-0.0323396921 -0.8012707829 0.7119387984 0.0000000000
-0.0318561792 -0.8038139939 0.7116124630 0.0000000000
-0.0312376022 -0.8063599467 0.7111949921 0.0000000000
-0.0301990509 -0.8089118600 0.7104941607 0.0000000000
-0.0288636684 -0.8114711642 0.7095928788 0.0000000000
-0.0272669792 -0.8140394688 0.7085152268 0.0000000000
-0.0254687071 -0.8166174889 0.7073015571 0.0000000000
-0.0236152411 -0.8192043304 0.7060506344 0.0000000000
-0.0212253332 -0.8218091130 0.7044376731 0.0000000000
-0.0179923773 -0.8244417310 0.7022557855 0.0000000000
-0.0134989023 -0.8271172643 0.6992231011 0.0000000000
-0.0064197779 -0.7648838162 0.6913071871 0.0000000000
-0.0141729116 -0.7676962614 0.6965602636 0.0000000000
-0.0182143450 -0.7703818083 0.6992983818 0.0000000000
-0.0213377476 -0.7730287910 0.7014146447 0.0000000000
-0.0241309404 -0.7756553292 0.7033072114 0.0000000000
-0.0267126560 -0.7782657146 0.7050563097 0.0000000000
-0.0287907124 -0.7808566689 0.7064642906 0.0000000000
-0.0300061703 -0.7834263444 0.7072878480 0.0000000000
-0.0307304859 -0.7859848142 0.7077785134 0.0000000000
-0.0312798023 -0.7885383964 0.7081507444 0.0000000000
-0.0317839384 -0.7910892963 0.7084922791 0.0000000000
-0.0322219133 -0.7936375737 0.7087890506 0.0000000000
-0.0325270891 -0.7961835861 0.7089958191 0.0000000000
-0.0325567722 -0.7987278700 0.7090158463 0.0000000000
-0.0321527719 -0.8012725711 0.7087422013 0.0000000000
-0.0316425562 -0.8038193583 0.7083965540 0.0000000000
-0.0310696363 -0.8063687086 0.7080083489 0.0000000000
-0.0300836563 -0.8089237213 0.7073403597 0.0000000000
-0.0286866426 -0.8114870191 0.7063937783 0.0000000000
-0.0271620750 -0.8140580058 0.7053608894 0.0000000000
-0.0254960060 -0.8166375756 0.7042320967 0.0000000000
-0.0236974955 -0.8192266226 0.7030134201 0.0000000000
-0.0214594603 -0.8218315840 0.7014971375 0.0000000000
-0.0179615021 -0.8244724274 0.6991271377 0.0000000000
-0.0126094818 -0.8271709681 0.6955009699 0.0000000000
-0.0069767237 -0.7648569942 0.6885401011 0.0000000000
-0.0145593882 -0.7676669955 0.6936976910 0.0000000000
-0.0187488794 -0.7703587413 0.6965472698 0.0000000000
-0.0217792988 -0.7730056643 0.6986085176 0.0000000000
-0.0241078138 -0.7756248116 0.7001922727 0.0000000000
-0.0262876749 -0.7782310843 0.7016749382 0.0000000000
-0.0283961296 -0.7808266282 0.7031089664 0.0000000000
-0.0299314260 -0.7834048271 0.7041532993 0.0000000000
-0.0307589769 -0.7859678864 0.7047161460 0.0000000000
-0.0313440561 -0.7885249257 0.7051141262 0.0000000000
-0.0319340229 -0.7910794616 0.7055153251 0.0000000000
-0.0323406458 -0.7936304212 0.7057919502 0.0000000000
-0.0324962139 -0.7961787581 0.7058978081 0.0000000000
-0.0324391127 -0.7987262011 0.7058589458 0.0000000000
-0.0321044922 -0.8012741804 0.7056313753 0.0000000000
-0.0316694975 -0.8038239479 0.7053354979 0.0000000000
-0.0310622454 -0.8063765764 0.7049224377 0.0000000000
-0.0300508738 -0.8089349270 0.7042346001 0.0000000000
-0.0287510157 -0.8115005493 0.7033504248 0.0000000000
-0.0273549557 -0.8140729666 0.7024007440 0.0000000000
-0.0257370472 -0.8166546822 0.7013003230 0.0000000000
-0.0239630938 -0.8192459345 0.7000938058 0.0000000000
-0.0216059685 -0.8218557835 0.6984905005 0.0000000000
-0.0176911354 -0.8245081902 0.6958277225 0.0000000000
-0.0123777390 -0.8272097707 0.6922137737 0.0000000000
-0.0071699619 -0.7648193240 0.6855199933 0.0000000000
-0.0145199299 -0.7676259875 0.6905386448 0.0000000000
-0.0194185972 -0.7703390121 0.6938834190 0.0000000000
-0.0223306417 -0.7729850411 0.6958718300 0.0000000000
-0.0245324373 -0.7756035924 0.6973752975 0.0000000000
-0.0264053345 -0.7782064080 0.6986540556 0.0000000000
-0.0281431675 -0.7807988524 0.6998407245 0.0000000000
-0.0296579599 -0.7833805084 0.7008750439 0.0000000000
-0.0306768417 -0.7859495878 0.7015708089 0.0000000000
-0.0313529968 -0.7885108590 0.7020325065 0.0000000000
-0.0320553780 -0.7910693884 0.7025120854 0.0000000000
-0.0325428247 -0.7936236262 0.7028447986 0.0000000000
-0.0326832533 -0.7961746454 0.7029407620 0.0000000000
-0.0326092243 -0.7987248302 0.7028901577 0.0000000000
-0.0323114395 -0.8012755513 0.7026869059 0.0000000000
-0.0318851471 -0.8038280010 0.7023957372 0.0000000000
-0.0312277079 -0.8063835502 0.7019468546 0.0000000000
-0.0302199125 -0.8089447021 0.7012587786 0.0000000000
-0.0290594101 -0.8115116954 0.7004663348 0.0000000000
-0.0276448727 -0.8140868545 0.6995005012 0.0000000000
-0.0259360075 -0.8166723847 0.6983336806 0.0000000000
-0.0239452124 -0.8192699552 0.6969743967 0.0000000000
-0.0212692022 -0.8218889832 0.6951470971 0.0000000000
-0.0179355145 -0.8245333433 0.6928708553 0.0000000000
-0.0120211840 -0.8272514939 0.6888324618 0.0000000000
-0.0139352083 -0.7675700188 0.6869978309 0.0000000000
-0.0194791555 -0.7703039050 0.6907979846 0.0000000000
-0.0226539373 -0.7729591131 0.6929742098 0.0000000000
-0.0249491930 -0.7755821347 0.6945475340 0.0000000000
-0.0267421007 -0.7781857252 0.6957765222 0.0000000000
-0.0283068419 -0.7807778120 0.6968491077 0.0000000000
-0.0296282768 -0.7833595276 0.6977548599 0.0000000000
-0.0306246281 -0.7859315872 0.6984378099 0.0000000000
-0.0312263966 -0.7884954214 0.6988502741 0.0000000000
-0.0317823887 -0.7910562754 0.6992313862 0.0000000000
-0.0323783159 -0.7936148643 0.6996398568 0.0000000000
-0.0327696800 -0.7961702347 0.6999081373 0.0000000000
-0.0328202248 -0.7987234592 0.6999428272 0.0000000000
-0.0325757265 -0.8012768030 0.6997752190 0.0000000000
-0.0321174860 -0.8038319349 0.6994611025 0.0000000000
-0.0314301252 -0.8063903451 0.6989898682 0.0000000000
-0.0304903984 -0.8089536428 0.6983458400 0.0000000000
-0.0293174982 -0.8115233779 0.6975418329 0.0000000000
-0.0277109146 -0.8141034842 0.6964405775 0.0000000000
-0.0258675814 -0.8166939616 0.6951770782 0.0000000000
-0.0238308907 -0.8192956448 0.6937810183 0.0000000000
-0.0213488340 -0.8219145536 0.6920796037 0.0000000000
-0.0184417963 -0.8245531321 0.6900869608 0.0000000000
-0.0117832422 -0.8272905946 0.6855227947 0.0000000000
-0.0136057138 -0.7675209045 0.6836218238 0.0000000000
-0.0183181763 -0.7702379227 0.6868645549 0.0000000000
-0.0223934650 -0.7729196548 0.6896688342 0.0000000000
-0.0251060724 -0.7755551934 0.6915354133 0.0000000000
-0.0270179510 -0.7781639099 0.6928510070 0.0000000000
-0.0285491943 -0.7807580233 0.6939047575 0.0000000000
-0.0297838449 -0.7833411694 0.6947542429 0.0000000000
-0.0306771994 -0.7859148383 0.6953690052 0.0000000000
-0.0312457085 -0.7884814143 0.6957603097 0.0000000000
-0.0316634178 -0.7910442948 0.6960477233 0.0000000000
-0.0321711302 -0.7936058640 0.6963970661 0.0000000000
-0.0327250957 -0.7961653471 0.6967782378 0.0000000000
-0.0329929590 -0.7987220883 0.6969625354 0.0000000000
-0.0328156948 -0.8012781143 0.6968405843 0.0000000000
-0.0323252678 -0.8038359880 0.6965031624 0.0000000000
-0.0315685272 -0.8063974977 0.6959823966 0.0000000000
-0.0305625200 -0.8089641929 0.6952900290 0.0000000000
-0.0292866230 -0.8115379214 0.6944121122 0.0000000000
-0.0276942253 -0.8141211271 0.6933164001 0.0000000000
-0.0260295868 -0.8167122602 0.6921709180 0.0000000000
-0.0240250826 -0.8193163276 0.6907915473 0.0000000000
-0.0217607021 -0.8219339848 0.6892334223 0.0000000000
-0.0188059807 -0.8245759010 0.6872002482 0.0000000000
-0.0117400885 -0.8273253441 0.6823380589 0.0000000000
-0.0134391785 -0.7674761415 0.6803488731 0.0000000000
-0.0177147388 -0.7701858878 0.6833022833 0.0000000000
-0.0216079950 -0.7728680372 0.6859917045 0.0000000000
-0.0249725580 -0.7755221128 0.6883158684 0.0000000000
-0.0272095203 -0.7781404257 0.6898610592 0.0000000000
-0.0287910700 -0.7807381749 0.6909535527 0.0000000000
-0.0300135612 -0.7833238244 0.6917980313 0.0000000000
-0.0308927298 -0.7858999968 0.6924053431 0.0000000000
-0.0315555334 -0.7884702086 0.6928632259 0.0000000000
-0.0319904089 -0.7910357118 0.6931636333 0.0000000000
-0.0324231386 -0.7935993075 0.6934626698 0.0000000000
-0.0329200029 -0.7961612344 0.6938058138 0.0000000000
-0.0331757069 -0.7987207174 0.6939824820 0.0000000000
-0.0330126286 -0.8012794852 0.6938697696 0.0000000000
-0.0324857235 -0.8038402200 0.6935057640 0.0000000000
-0.0316874981 -0.8064047694 0.6929544806 0.0000000000
-0.0306438208 -0.8089746237 0.6922333837 0.0000000000
-0.0294051170 -0.8115510345 0.6913776994 0.0000000000
-0.0280181170 -0.8141347170 0.6904196143 0.0000000000
-0.0264346600 -0.8167272210 0.6893258095 0.0000000000
-0.0244445801 -0.8193333149 0.6879512072 0.0000000000
-0.0220234394 -0.8219562173 0.6862787008 0.0000000000
-0.0183111429 -0.8246166706 0.6837142110 0.0000000000
-0.0116591454 -0.8273610473 0.6791192889 0.0000000000
-0.0035097599 -0.7645363808 0.6702970862 0.0000000000
-0.0130183697 -0.7674242854 0.6768908501 0.0000000000
-0.0177621841 -0.7701501250 0.6801803708 0.0000000000
-0.0211013556 -0.7728227377 0.6824959517 0.0000000000
-0.0246138573 -0.7754843235 0.6849316955 0.0000000000
-0.0273110867 -0.7781152129 0.6868020296 0.0000000000
-0.0290886164 -0.7807191610 0.6880347133 0.0000000000
-0.0303049088 -0.7833073139 0.6888780594 0.0000000000
-0.0311884880 -0.7858861089 0.6894907951 0.0000000000
-0.0319099426 -0.7884593606 0.6899910569 0.0000000000
-0.0324305296 -0.7910279632 0.6903520823 0.0000000000
-0.0328198671 -0.7935935259 0.6906221509 0.0000000000
-0.0331840515 -0.7961573601 0.6908746958 0.0000000000
-0.0333943367 -0.7987193465 0.6910203695 0.0000000000
-0.0331901312 -0.8012809157 0.6908788681 0.0000000000
-0.0326222181 -0.8038445115 0.6904850006 0.0000000000
-0.0318132639 -0.8064119816 0.6899241209 0.0000000000
-0.0307728052 -0.8089848161 0.6892026067 0.0000000000
-0.0296460390 -0.8115630150 0.6884211898 0.0000000000
-0.0284022093 -0.8141475916 0.6875587106 0.0000000000
-0.0268239975 -0.8167423606 0.6864642501 0.0000000000
-0.0246329308 -0.8193541765 0.6849449277 0.0000000000
-0.0215311050 -0.8219926357 0.6827939749 0.0000000000
-0.0172231197 -0.8246698976 0.6798066497 0.0000000000
-0.0114448071 -0.8273999095 0.6757996678 0.0000000000
-0.0046970844 -0.7645276189 0.6679229736 0.0000000000
-0.0125284195 -0.7673703432 0.6733745337 0.0000000000
-0.0178582668 -0.7701154947 0.6770848036 0.0000000000
-0.0211849213 -0.7727909088 0.6794005632 0.0000000000
-0.0243397951 -0.7754481435 0.6815967560 0.0000000000
-0.0272750854 -0.7780873775 0.6836400628 0.0000000000
-0.0292493105 -0.7806978822 0.6850143075 0.0000000000
-0.0305341482 -0.7832898498 0.6859087348 0.0000000000
-0.0314207077 -0.7858713865 0.6865259409 0.0000000000
-0.0321635008 -0.7884475589 0.6870428920 0.0000000000
-0.0327289104 -0.7910191417 0.6874365807 0.0000000000
-0.0330951214 -0.7935870886 0.6876915097 0.0000000000
-0.0333678722 -0.7961531878 0.6878814101 0.0000000000
-0.0335605145 -0.7987179160 0.6880154610 0.0000000000
-0.0333694220 -0.8012822866 0.6878824234 0.0000000000
-0.0327886343 -0.8038487434 0.6874780655 0.0000000000
-0.0319299698 -0.8064193130 0.6868803501 0.0000000000
-0.0308005810 -0.8089957237 0.6860942245 0.0000000000
-0.0296678543 -0.8115771413 0.6853055954 0.0000000000
-0.0284825563 -0.8141641617 0.6844805479 0.0000000000
-0.0268381834 -0.8167629242 0.6833359003 0.0000000000
-0.0242099762 -0.8193852305 0.6815062761 0.0000000000
-0.0209019184 -0.8220316768 0.6792035699 0.0000000000
-0.0167542696 -0.8247103095 0.6763162613 0.0000000000
-0.0118443966 -0.8274247050 0.6728983521 0.0000000000
-0.0054370165 -0.7645055056 0.6652346849 0.0000000000
-0.0127137899 -0.7673349380 0.6703196168 0.0000000000
-0.0174109936 -0.7700670362 0.6736020446 0.0000000000
-0.0210909843 -0.7727549076 0.6761736870 0.0000000000
-0.0241000652 -0.7754126191 0.6782764196 0.0000000000
-0.0270822048 -0.7780565619 0.6803603768 0.0000000000
-0.0291513205 -0.7806723118 0.6818063259 0.0000000000
-0.0305449963 -0.7832692862 0.6827800870 0.0000000000
-0.0314360857 -0.7858539820 0.6834028959 0.0000000000
-0.0320684910 -0.7884323001 0.6838448644 0.0000000000
-0.0326275826 -0.7910071611 0.6842354536 0.0000000000
-0.0329529047 -0.7935783863 0.6844629049 0.0000000000
-0.0331861973 -0.7961477637 0.6846258044 0.0000000000
-0.0334197283 -0.7987161875 0.6847890019 0.0000000000
-0.0333745480 -0.8012838960 0.6847574711 0.0000000000
-0.0328623056 -0.8038532734 0.6843995452 0.0000000000
-0.0319644213 -0.8064271212 0.6837720871 0.0000000000
-0.0306887627 -0.8090077639 0.6828806400 0.0000000000
-0.0295624733 -0.8115925789 0.6820936203 0.0000000000
-0.0283349752 -0.8141835332 0.6812357903 0.0000000000
-0.0264759064 -0.8167889714 0.6799365878 0.0000000000
-0.0240554810 -0.8194118738 0.6782452464 0.0000000000
-0.0209385157 -0.8220583797 0.6760671139 0.0000000000
-0.0168982744 -0.8247379661 0.6732438207 0.0000000000
-0.0117143393 -0.8274617791 0.6696212888 0.0000000000
-0.0063915253 -0.7644897103 0.6626927853 0.0000000000
-0.0131351948 -0.7673058510 0.6674234867 0.0000000000
-0.0169688463 -0.7700185776 0.6701126695 0.0000000000
-0.0204954147 -0.7727072239 0.6725865602 0.0000000000
-0.0235900879 -0.7753713727 0.6747574210 0.0000000000
-0.0264568329 -0.7780175209 0.6767684817 0.0000000000
-0.0286635160 -0.7806401849 0.6783163548 0.0000000000
-0.0301980972 -0.7832434773 0.6793929338 0.0000000000
-0.0311690569 -0.7858331800 0.6800739765 0.0000000000
-0.0317445993 -0.7884146571 0.6804778576 0.0000000000
-0.0321696997 -0.7909924388 0.6807759404 0.0000000000
-0.0324122906 -0.7935673594 0.6809461117 0.0000000000
-0.0326397419 -0.7961412072 0.6811056137 0.0000000000
-0.0329867601 -0.7987141013 0.6813491583 0.0000000000
-0.0330749750 -0.8012858033 0.6814110875 0.0000000000
-0.0326712132 -0.8038587570 0.6811277866 0.0000000000
-0.0317699909 -0.8064361811 0.6804955602 0.0000000000
-0.0306109190 -0.8090195656 0.6796825528 0.0000000000
-0.0294629335 -0.8116079569 0.6788771749 0.0000000000
-0.0280352831 -0.8142048120 0.6778756976 0.0000000000
-0.0262182951 -0.8168135285 0.6766011715 0.0000000000
-0.0241609812 -0.8194342256 0.6751579642 0.0000000000
-0.0209490061 -0.8220856786 0.6729047894 0.0000000000
-0.0169975758 -0.8247666955 0.6701328754 0.0000000000
-0.0107698441 -0.8275178075 0.6657640934 0.0000000000
-0.0069154501 -0.7644611001 0.6598448753 0.0000000000
-0.0135649443 -0.7672770023 0.6645273566 0.0000000000
-0.0170942545 -0.7699844241 0.6670127511 0.0000000000
-0.0203725100 -0.7726703882 0.6693212390 0.0000000000
-0.0230737925 -0.7753298283 0.6712234616 0.0000000000
-0.0258663893 -0.7779790759 0.6731898785 0.0000000000
-0.0281202793 -0.7806071043 0.6747770905 0.0000000000
-0.0296273232 -0.7832143903 0.6758383512 0.0000000000
-0.0306695700 -0.7858094573 0.6765722036 0.0000000000
-0.0314173698 -0.7883970141 0.6770989299 0.0000000000
-0.0319232941 -0.7909793258 0.6774551272 0.0000000000
-0.0321992636 -0.7935581803 0.6776494384 0.0000000000
-0.0323221684 -0.7961353064 0.6777359843 0.0000000000
-0.0324690342 -0.7987119555 0.6778394580 0.0000000000
-0.0324889421 -0.8012880683 0.6778534651 0.0000000000
-0.0322003365 -0.8038650751 0.6776501536 0.0000000000
-0.0315186977 -0.8064455986 0.6771702170 0.0000000000
-0.0305030346 -0.8090316653 0.6764549613 0.0000000000
-0.0292414427 -0.8116246462 0.6755666137 0.0000000000
-0.0276913643 -0.8142266870 0.6744750738 0.0000000000
-0.0260393620 -0.8168370724 0.6733117104 0.0000000000
-0.0239330530 -0.8194622397 0.6718285084 0.0000000000
-0.0207575560 -0.8221167326 0.6695922613 0.0000000000
-0.0168262720 -0.8248011470 0.6668239236 0.0000000000
-0.0106965303 -0.8275538087 0.6625074744 0.0000000000
-0.0046529770 -0.7643492818 0.6550220847 0.0000000000
-0.0138390064 -0.7672437429 0.6615156531 0.0000000000
-0.0174137354 -0.7699550986 0.6640425920 0.0000000000
-0.0207700729 -0.7726455331 0.6664150953 0.0000000000
-0.0234078169 -0.7753061056 0.6682797074 0.0000000000
-0.0257285833 -0.7779490352 0.6699202657 0.0000000000
-0.0278378725 -0.7805781960 0.6714112759 0.0000000000
-0.0293238163 -0.7831891179 0.6724616289 0.0000000000
-0.0303004980 -0.7857872844 0.6731520891 0.0000000000
-0.0311117172 -0.7883794904 0.6737254858 0.0000000000
-0.0318104029 -0.7909672260 0.6742193699 0.0000000000
-0.0321936607 -0.7935501337 0.6744903326 0.0000000000
-0.0322376490 -0.7961302400 0.6745214462 0.0000000000
-0.0321573019 -0.7987099886 0.6744646430 0.0000000000
-0.0321047306 -0.8012900949 0.6744275093 0.0000000000
-0.0319113731 -0.8038708568 0.6742907763 0.0000000000
-0.0313639641 -0.8064544797 0.6739038229 0.0000000000
-0.0303075314 -0.8090444207 0.6731569767 0.0000000000
-0.0289199352 -0.8116423488 0.6721761823 0.0000000000
-0.0274825096 -0.8142470121 0.6711601019 0.0000000000
-0.0257359743 -0.8168624043 0.6699254513 0.0000000000
-0.0234135389 -0.8194951415 0.6682838202 0.0000000000
-0.0203362703 -0.8221522570 0.6661084890 0.0000000000
-0.0167180300 -0.8248343468 0.6635507941 0.0000000000
-0.0112870932 -0.8275744915 0.6597117186 0.0000000000
-0.0134617090 -0.7671924233 0.6580352187 0.0000000000
-0.0178011656 -0.7699273825 0.6611143947 0.0000000000
-0.0211421251 -0.7726200223 0.6634851694 0.0000000000
-0.0238797665 -0.7752851248 0.6654277444 0.0000000000
-0.0260431767 -0.7779273987 0.6669629812 0.0000000000
-0.0278202295 -0.7805536389 0.6682239175 0.0000000000
-0.0292154551 -0.7831665874 0.6692140698 0.0000000000
-0.0302463770 -0.7857688665 0.6699454784 0.0000000000
-0.0310609341 -0.7883644700 0.6705234647 0.0000000000
-0.0317170620 -0.7909551859 0.6709891558 0.0000000000
-0.0321573019 -0.7935418487 0.6713014841 0.0000000000
-0.0322437286 -0.7961254120 0.6713628173 0.0000000000
-0.0321437120 -0.7987083793 0.6712918878 0.0000000000
-0.0320264101 -0.8012917638 0.6712086201 0.0000000000
-0.0318500996 -0.8038759232 0.6710835695 0.0000000000
-0.0312874317 -0.8064629436 0.6706842184 0.0000000000
-0.0301765203 -0.8090567589 0.6698959470 0.0000000000
-0.0289655924 -0.8116564155 0.6690366864 0.0000000000
-0.0275254250 -0.8142642379 0.6680146456 0.0000000000
-0.0255302191 -0.8168864250 0.6665990353 0.0000000000
-0.0230777264 -0.8195250630 0.6648586988 0.0000000000
-0.0201381445 -0.8221836686 0.6627727747 0.0000000000
-0.0168619156 -0.8248623610 0.6604479551 0.0000000000
-0.0120433569 -0.8275913596 0.6570286155 0.0000000000
-0.0132145882 -0.7671445608 0.6546372771 0.0000000000
-0.0180116892 -0.7698951364 0.6580542922 0.0000000000
-0.0213373899 -0.7725902796 0.6604232788 0.0000000000
-0.0239804983 -0.7752563953 0.6623059511 0.0000000000
-0.0261323452 -0.7779014707 0.6638387442 0.0000000000
-0.0278328657 -0.7805295587 0.6650501490 0.0000000000
-0.0292214155 -0.7831456065 0.6660392284 0.0000000000
-0.0303142071 -0.7857518792 0.6668176651 0.0000000000
-0.0311175585 -0.7883504629 0.6673898101 0.0000000000
-0.0316499472 -0.7909433842 0.6677690744 0.0000000000
-0.0320622921 -0.7935332656 0.6680628061 0.0000000000
-0.0322818756 -0.7961207032 0.6682192683 0.0000000000
-0.0323055983 -0.7987069488 0.6682360172 0.0000000000
-0.0321109295 -0.8012933135 0.6680974364 0.0000000000
-0.0317883492 -0.8038809896 0.6678676605 0.0000000000
-0.0312124491 -0.8064714670 0.6674574018 0.0000000000
-0.0303418636 -0.8090667725 0.6668372750 0.0000000000
-0.0292617083 -0.8116680384 0.6660678983 0.0000000000
-0.0276145935 -0.8142809868 0.6648947001 0.0000000000
-0.0254808664 -0.8169082403 0.6633747816 0.0000000000
-0.0229732990 -0.8195511699 0.6615885496 0.0000000000
-0.0202444792 -0.8222093582 0.6596448421 0.0000000000
-0.0169907808 -0.8248907328 0.6573271155 0.0000000000
-0.0127152205 -0.8276101947 0.6542815566 0.0000000000
-0.0132074356 -0.7671031952 0.6514016986 0.0000000000
-0.0179408789 -0.7698556781 0.6547862291 0.0000000000
-0.0212216377 -0.7725532651 0.6571321487 0.0000000000
-0.0238169432 -0.7752219439 0.6589878201 0.0000000000
-0.0260568857 -0.7778723836 0.6605895162 0.0000000000
-0.0277974606 -0.7805045843 0.6618340611 0.0000000000
-0.0292408466 -0.7831247449 0.6628660560 0.0000000000
-0.0303992033 -0.7857350707 0.6636943221 0.0000000000
-0.0311611891 -0.7883363366 0.6642392278 0.0000000000
-0.0317113400 -0.7909325361 0.6646326184 0.0000000000
-0.0321712494 -0.7935257554 0.6649614573 0.0000000000
-0.0324610472 -0.7961164117 0.6651686430 0.0000000000
-0.0324587822 -0.7987054586 0.6651670337 0.0000000000
-0.0322126150 -0.8012948036 0.6649910212 0.0000000000
-0.0318950415 -0.8038854599 0.6647639871 0.0000000000
-0.0313819647 -0.8064786196 0.6643970609 0.0000000000
-0.0305531025 -0.8090764880 0.6638044715 0.0000000000
-0.0293902159 -0.8116813898 0.6629729271 0.0000000000
-0.0276292562 -0.8142986894 0.6617137790 0.0000000000
-0.0255751610 -0.8169280887 0.6602450013 0.0000000000
-0.0231537819 -0.8195726871 0.6585136652 0.0000000000
-0.0203155279 -0.8222358823 0.6564842463 0.0000000000
-0.0171555281 -0.8249183893 0.6542246938 0.0000000000
-0.0133837461 -0.8276292086 0.6515277028 0.0000000000
-0.0128312111 -0.7670515180 0.6478929520 0.0000000000
-0.0179316998 -0.7698176503 0.6515539289 0.0000000000
-0.0211201906 -0.7725164890 0.6538424492 0.0000000000
-0.0236365795 -0.7751870751 0.6556486487 0.0000000000
-0.0260360241 -0.7778442502 0.6573708653 0.0000000000
-0.0279120207 -0.7804820538 0.6587173939 0.0000000000
-0.0293263197 -0.7831048369 0.6597326398 0.0000000000
-0.0305275917 -0.7857187986 0.6605947614 0.0000000000
-0.0312879086 -0.7883229852 0.6611405611 0.0000000000
-0.0318136215 -0.7909219265 0.6615178585 0.0000000000
-0.0322718620 -0.7935182452 0.6618468165 0.0000000000
-0.0325224400 -0.7961117625 0.6620265841 0.0000000000
-0.0324631929 -0.7987038493 0.6619840264 0.0000000000
-0.0322328806 -0.8012964129 0.6618188024 0.0000000000
-0.0319991112 -0.8038899899 0.6616510153 0.0000000000
-0.0315831900 -0.8064855933 0.6613524556 0.0000000000
-0.0308237076 -0.8090857863 0.6608073711 0.0000000000
-0.0296478271 -0.8116934299 0.6599633098 0.0000000000
-0.0278369188 -0.8143141270 0.6586635113 0.0000000000
-0.0256991386 -0.8169475198 0.6571291089 0.0000000000
-0.0231412649 -0.8195974231 0.6552931666 0.0000000000
-0.0202819109 -0.8222643733 0.6532408595 0.0000000000
-0.0172404051 -0.8249478340 0.6510577202 0.0000000000
-0.0138566494 -0.8276528120 0.6486289501 0.0000000000
-0.0125235319 -0.7670016289 0.6444234848 0.0000000000
-0.0179411173 -0.7697799802 0.6483267546 0.0000000000
-0.0213047266 -0.7724863291 0.6507502794 0.0000000000
-0.0237879753 -0.7751591206 0.6525394320 0.0000000000
-0.0261055231 -0.7778177261 0.6542092562 0.0000000000
-0.0280684233 -0.7804601789 0.6556235552 0.0000000000
-0.0295797586 -0.7830873132 0.6567125320 0.0000000000
-0.0307645798 -0.7857037187 0.6575660706 0.0000000000
-0.0315613747 -0.7883110642 0.6581401825 0.0000000000
-0.0320923328 -0.7909126878 0.6585227847 0.0000000000
-0.0324645042 -0.7935111523 0.6587909460 0.0000000000
-0.0325161219 -0.7961068749 0.6588280797 0.0000000000
-0.0323761702 -0.7987021208 0.6587272882 0.0000000000
-0.0321720839 -0.8012980819 0.6585802436 0.0000000000
-0.0319999456 -0.8038948774 0.6584562063 0.0000000000
-0.0317007303 -0.8064931035 0.6582406163 0.0000000000
-0.0310882330 -0.8090950847 0.6577993631 0.0000000000
-0.0299181938 -0.8117054105 0.6569562554 0.0000000000
-0.0278882980 -0.8143314123 0.6554937959 0.0000000000
-0.0255774260 -0.8169705272 0.6538288593 0.0000000000
-0.0230891705 -0.8196228743 0.6520359516 0.0000000000
-0.0203810930 -0.8222904205 0.6500848532 0.0000000000
-0.0172435045 -0.8249791265 0.6478241682 0.0000000000
-0.0140210390 -0.8276836872 0.6455024481 0.0000000000
-0.0123419762 -0.7669550776 0.6410351992 0.0000000000
-0.0177774429 -0.7697377801 0.6449664235 0.0000000000
-0.0215049982 -0.7724564075 0.6476623416 0.0000000000
-0.0241533518 -0.7751356363 0.6495777965 0.0000000000
-0.0263121128 -0.7777937651 0.6511390805 0.0000000000
-0.0280985832 -0.7804360986 0.6524310708 0.0000000000
-0.0296928883 -0.7830677032 0.6535842419 0.0000000000
-0.0309978724 -0.7856886387 0.6545280218 0.0000000000
-0.0318946838 -0.7882996798 0.6551766992 0.0000000000
-0.0325376987 -0.7909047604 0.6556417346 0.0000000000
-0.0328160524 -0.7935049534 0.6558429599 0.0000000000
-0.0326832533 -0.7961025238 0.6557469964 0.0000000000
-0.0323708057 -0.7987005115 0.6555210352 0.0000000000
-0.0321412086 -0.8012997508 0.6553549170 0.0000000000
-0.0320249796 -0.8038997054 0.6552708149 0.0000000000
-0.0317863226 -0.8065007925 0.6550982594 0.0000000000
-0.0311989784 -0.8091056943 0.6546735168 0.0000000000
-0.0298395157 -0.8117209077 0.6536902189 0.0000000000
-0.0276416540 -0.8143524528 0.6521006227 0.0000000000
-0.0255699158 -0.8169919848 0.6506022811 0.0000000000
-0.0232253075 -0.8196452856 0.6489065289 0.0000000000
-0.0202164650 -0.8223215938 0.6467304230 0.0000000000
-0.0171507597 -0.8250124454 0.6445133090 0.0000000000
-0.0138722658 -0.8277219534 0.6421419978 0.0000000000
-0.0117586851 -0.7668972611 0.6373462677 0.0000000000
-0.0174802542 -0.7696921229 0.6415000558 0.0000000000
-0.0214494467 -0.7724204659 0.6443817616 0.0000000000
-0.0244349241 -0.7751103044 0.6465491056 0.0000000000
-0.0265249014 -0.7777698636 0.6480664015 0.0000000000
-0.0281709433 -0.7804126740 0.6492615342 0.0000000000
-0.0296903849 -0.7830463648 0.6503646374 0.0000000000
-0.0310455561 -0.7856712341 0.6513484120 0.0000000000
-0.0321160555 -0.7882871628 0.6521255970 0.0000000000
-0.0328375101 -0.7908956409 0.6526493430 0.0000000000
-0.0330727100 -0.7934982181 0.6528201103 0.0000000000
-0.0328505039 -0.7960981727 0.6526587605 0.0000000000
-0.0325169563 -0.7986990213 0.6524165869 0.0000000000
-0.0322791338 -0.8013012409 0.6522440314 0.0000000000
-0.0321657658 -0.8039041162 0.6521617174 0.0000000000
-0.0318593979 -0.8065085411 0.6519392729 0.0000000000
-0.0309782028 -0.8091188669 0.6512994766 0.0000000000
-0.0293837786 -0.8117402196 0.6501420140 0.0000000000
-0.0275297165 -0.8143718839 0.6487959623 0.0000000000
