VERSION 0.7
FIELDS x y z rgb
SIZE 4 4 4 4
TYPE F F F F
COUNT 1 1 1 1
WIDTH 886
HEIGHT 1
VIEWPOINT 0.0 0.0 0.0 1.0 0.0 0.0 0.0
POINTS 886
DATA ascii
-0.0473141670 -0.7198837399 0.6882931590 0.0000000000
-0.0512663126 -0.7226930857 0.6910762191 0.0000000000
-0.0546104908 -0.7254453897 0.6934310794 0.0000000000
-0.0574182272 -0.7281492352 0.6954083443 0.0000000000
-0.0598219633 -0.7308161855 0.6971009970 0.0000000000
-0.0619503260 -0.7334563732 0.6985997558 0.0000000000
-0.0637463331 -0.7360685468 0.6998645067 0.0000000000
-0.0653886795 -0.7386644483 0.7010209560 0.0000000000
-0.0667866468 -0.7412404418 0.7020053864 0.0000000000
-0.0679926872 -0.7438006997 0.7028546929 0.0000000000
-0.0690896511 -0.7463504672 0.7036271691 0.0000000000
-0.0699962378 -0.7488868237 0.7042655349 0.0000000000
-0.0707837343 -0.7514140010 0.7048200965 0.0000000000
-0.0714566708 -0.7539330721 0.7052940130 0.0000000000
-0.0720181465 -0.7564448714 0.7056893706 0.0000000000
-0.0724338293 -0.7589488626 0.7059820890 0.0000000000
-0.0727647543 -0.7614481449 0.7062150836 0.0000000000
-0.0729897022 -0.7639425397 0.7063735723 0.0000000000
-0.0730823278 -0.7664320469 0.7064387202 0.0000000000
-0.0730798244 -0.7689184546 0.7064370513 0.0000000000
-0.0729730129 -0.7714022994 0.7063617706 0.0000000000
-0.0727806091 -0.7738845944 0.7062263489 0.0000000000
-0.0724101067 -0.7763640285 0.7059654593 0.0000000000
-0.0719859600 -0.7788440585 0.7056666613 0.0000000000
-0.0714398623 -0.7813239694 0.7052822113 0.0000000000
-0.0707668066 -0.7838044167 0.7048081756 0.0000000000
-0.0700117350 -0.7862868905 0.7042765021 0.0000000000
-0.0690511465 -0.7887706757 0.7036000490 0.0000000000
-0.0679913759 -0.7912578583 0.7028537989 0.0000000000
-0.0668159723 -0.7937491536 0.7020260692 0.0000000000
-0.0654358864 -0.7962449193 0.7010542750 0.0000000000
-0.0639630556 -0.7987467051 0.7000171542 0.0000000000
-0.0622501373 -0.8012552261 0.6988108754 0.0000000000
-0.0602825880 -0.8037721515 0.6974253654 0.0000000000
-0.0580788851 -0.8062990904 0.6958734989 0.0000000000
-0.0556584597 -0.8088373542 0.6941691637 0.0000000000
-0.0528771877 -0.8113899827 0.6922105551 0.0000000000
-0.0496608019 -0.8139600754 0.6899456382 0.0000000000
-0.0457848310 -0.8165538907 0.6872162819 0.0000000000
-0.0411620140 -0.8191771507 0.6839608550 0.0000000000
-0.0346903801 -0.8218554258 0.6794036627 0.0000000000
-0.0216552019 -0.8246999383 0.6702244282 0.0000000000
-0.0336190462 -0.7136771679 0.6754978895 0.0000000000
-0.0415138006 -0.7168207765 0.6810786128 0.0000000000
-0.0467997789 -0.7197480202 0.6848152876 0.0000000000
-0.0508629084 -0.7225694656 0.6876873970 0.0000000000
-0.0542632341 -0.7253297567 0.6900910735 0.0000000000
-0.0571125746 -0.7280403376 0.6921052337 0.0000000000
-0.0595417023 -0.7307128310 0.6938224435 0.0000000000
-0.0616782904 -0.7333574891 0.6953327060 0.0000000000
-0.0635027885 -0.7359750867 0.6966224909 0.0000000000
-0.0651515722 -0.7385751009 0.6977878809 0.0000000000
-0.0665236712 -0.7411534786 0.6987578273 0.0000000000
-0.0677868128 -0.7437203526 0.6996508241 0.0000000000
-0.0688657761 -0.7462729216 0.7004134655 0.0000000000
-0.0698022842 -0.7488142848 0.7010754347 0.0000000000
-0.0706223249 -0.7513464689 0.7016551495 0.0000000000
-0.0712828636 -0.7538685203 0.7021220922 0.0000000000
-0.0718337297 -0.7563834190 0.7025114894 0.0000000000
-0.0722665787 -0.7588915825 0.7028174400 0.0000000000
-0.0726093054 -0.7613947392 0.7030597925 0.0000000000
-0.0728242397 -0.7638922930 0.7032116652 0.0000000000
-0.0729094744 -0.7663850188 0.7032719851 0.0000000000
-0.0729196072 -0.7688753009 0.7032790184 0.0000000000
-0.0728114843 -0.7713625431 0.7032026052 0.0000000000
-0.0725897551 -0.7738475800 0.7030459046 0.0000000000
-0.0722759962 -0.7763317227 0.7028241158 0.0000000000
-0.0717951059 -0.7788140774 0.7024840713 0.0000000000
-0.0712934732 -0.7812982202 0.7021296024 0.0000000000
-0.0706045628 -0.7837818861 0.7016426325 0.0000000000
-0.0698417425 -0.7862677574 0.7011033893 0.0000000000
-0.0688887835 -0.7887550592 0.7004297376 0.0000000000
-0.0678086281 -0.7912455797 0.6996662021 0.0000000000
-0.0666323900 -0.7937403321 0.6988346577 0.0000000000
-0.0652656555 -0.7962396741 0.6978685856 0.0000000000
-0.0637798309 -0.7987449169 0.6968183517 0.0000000000
-0.0620166063 -0.8012570143 0.6955718398 0.0000000000
-0.0600512028 -0.8037776351 0.6941825151 0.0000000000
-0.0578396320 -0.8063082695 0.6926191449 0.0000000000
-0.0554120541 -0.8088502884 0.6909031272 0.0000000000
-0.0525906086 -0.8114070296 0.6889086962 0.0000000000
-0.0493451357 -0.8139813542 0.6866145730 0.0000000000
-0.0454673767 -0.8165791035 0.6838733554 0.0000000000
-0.0407439470 -0.8192079663 0.6805344820 0.0000000000
-0.0340739489 -0.8218942881 0.6758195162 0.0000000000
-0.0325915813 -0.7134931684 0.6716096401 0.0000000000
-0.0408101082 -0.7166662812 0.6774415374 0.0000000000
-0.0461812019 -0.7196046710 0.6812527776 0.0000000000
-0.0504554510 -0.7224452496 0.6842858195 0.0000000000
-0.0539002419 -0.7252128124 0.6867302656 0.0000000000
-0.0567260981 -0.7279261351 0.6887354851 0.0000000000
-0.0592145920 -0.7306064367 0.6905012727 0.0000000000
-0.0613812208 -0.7332568169 0.6920387745 0.0000000000
-0.0632587671 -0.7358813286 0.6933709979 0.0000000000
-0.0649154186 -0.7384855747 0.6945466399 0.0000000000
-0.0662992001 -0.7410683036 0.6955285668 0.0000000000
-0.0675833225 -0.7436399460 0.6964396834 0.0000000000
-0.0686739683 -0.7461966872 0.6972136497 0.0000000000
-0.0696094036 -0.7487416267 0.6978774071 0.0000000000
-0.0704441071 -0.7512780428 0.6984697580 0.0000000000
-0.0711077452 -0.7538037300 0.6989406347 0.0000000000
-0.0716608763 -0.7563222647 0.6993331909 0.0000000000
-0.0720734596 -0.7588331699 0.6996258497 0.0000000000
-0.0724135637 -0.7613397837 0.6998672485 0.0000000000
-0.0726546049 -0.7638417482 0.7000383139 0.0000000000
-0.0727338791 -0.7663377523 0.7000945807 0.0000000000
-0.0727605820 -0.7688320279 0.7001135349 0.0000000000
-0.0726493597 -0.7713226080 0.7000345588 0.0000000000
-0.0724077225 -0.7738106847 0.6998631358 0.0000000000
-0.0721187592 -0.7762988210 0.6996580958 0.0000000000
-0.0716283321 -0.7787844539 0.6993100643 0.0000000000
-0.0711374283 -0.7812722921 0.6989616752 0.0000000000
-0.0704383850 -0.7837592363 0.6984656453 0.0000000000
-0.0696678162 -0.7862484455 0.6979188919 0.0000000000
-0.0687229633 -0.7887393236 0.6972484589 0.0000000000
-0.0676399469 -0.7912333012 0.6964798570 0.0000000000
-0.0664608479 -0.7937315702 0.6956433058 0.0000000000
-0.0651049614 -0.7962344289 0.6946811080 0.0000000000
-0.0635650158 -0.7987431288 0.6935884356 0.0000000000
-0.0618238449 -0.8012588024 0.6923527718 0.0000000000
-0.0598504543 -0.8037829995 0.6909524798 0.0000000000
-0.0576016903 -0.8063174486 0.6893568635 0.0000000000
-0.0551667213 -0.8088632822 0.6876289845 0.0000000000
-0.0523477793 -0.8114236593 0.6856286526 0.0000000000
-0.0490419865 -0.8140025139 0.6832828522 0.0000000000
-0.0451488495 -0.8166043758 0.6805202961 0.0000000000
-0.0403194427 -0.8192390203 0.6770933867 0.0000000000
-0.0334635973 -0.8219330907 0.6722283959 0.0000000000
-0.0311219692 -0.7132759690 0.6673929691 0.0000000000
-0.0400847197 -0.7165098786 0.6737772226 0.0000000000
-0.0456414223 -0.7194664478 0.6777353287 0.0000000000
-0.0499913692 -0.7223169208 0.6808338761 0.0000000000
-0.0535174608 -0.7250943184 0.6833456159 0.0000000000
-0.0564185381 -0.7278165817 0.6854120493 0.0000000000
-0.0589199066 -0.7305017114 0.6871938109 0.0000000000
-0.0610932112 -0.7331564426 0.6887418628 0.0000000000
-0.0630108118 -0.7357871532 0.6901078224 0.0000000000
-0.0646642447 -0.7383950353 0.6912855506 0.0000000000
-0.0660845041 -0.7409834266 0.6922972202 0.0000000000
-0.0673577785 -0.7435582280 0.6932041645 0.0000000000
-0.0684576035 -0.7461191416 0.6939876080 0.0000000000
-0.0693984032 -0.7486678958 0.6946578026 0.0000000000
-0.0702407360 -0.7512083054 0.6952578425 0.0000000000
-0.0709151030 -0.7537380457 0.6957381964 0.0000000000
-0.0714845657 -0.7562608123 0.6961438060 0.0000000000
-0.0719281435 -0.7587763667 0.6964598298 0.0000000000
-0.0722644329 -0.7612863183 0.6966993213 0.0000000000
-0.0725015402 -0.7637916207 0.6968682408 0.0000000000
-0.0725675821 -0.7662907243 0.6969152689 0.0000000000
-0.0725928545 -0.7687883973 0.6969332099 0.0000000000
-0.0724896193 -0.7712826729 0.6968596578 0.0000000000
-0.0722756386 -0.7737748623 0.6967073083 0.0000000000
-0.0719619989 -0.7762659192 0.6964838505 0.0000000000
-0.0714915991 -0.7787553668 0.6961488724 0.0000000000
-0.0709632635 -0.7812459469 0.6957724094 0.0000000000
-0.0702803135 -0.7837366462 0.6952859759 0.0000000000
-0.0695073605 -0.7862293124 0.6947353482 0.0000000000
-0.0685548782 -0.7887235880 0.6940569878 0.0000000000
-0.0674800873 -0.7912211418 0.6932914257 0.0000000000
-0.0662667751 -0.7937226295 0.6924270988 0.0000000000
-0.0648906231 -0.7962290049 0.6914469004 0.0000000000
-0.0634042025 -0.7987413406 0.6903880239 0.0000000000
-0.0616536140 -0.8012605906 0.6891410351 0.0000000000
-0.0596197844 -0.8037884831 0.6876924038 0.0000000000
-0.0573697090 -0.8063266277 0.6860895753 0.0000000000
-0.0549468994 -0.8088760376 0.6843637824 0.0000000000
-0.0521225929 -0.8114402294 0.6823520064 0.0000000000
-0.0487149954 -0.8140239716 0.6799247265 0.0000000000
-0.0447849035 -0.8166303635 0.6771252751 0.0000000000
-0.0399006605 -0.8192700148 0.6736462116 0.0000000000
-0.0328232050 -0.8219726086 0.6686047912 0.0000000000
-0.0294946432 -0.7130464911 0.6630475521 0.0000000000
-0.0393328667 -0.7163511515 0.6700822711 0.0000000000
-0.0451157093 -0.7193289399 0.6742172837 0.0000000000
-0.0495318174 -0.7221885920 0.6773748398 0.0000000000
-0.0531333685 -0.7249753475 0.6799501181 0.0000000000
-0.0560874939 -0.7277052999 0.6820623875 0.0000000000
-0.0586518049 -0.7303982973 0.6838960052 0.0000000000
-0.0608197451 -0.7330566645 0.6854461432 0.0000000000
-0.0627554655 -0.7356923223 0.6868301630 0.0000000000
-0.0644257069 -0.7383049130 0.6880245805 0.0000000000
-0.0658699274 -0.7408983707 0.6890572309 0.0000000000
-0.0671375990 -0.7434765697 0.6899636388 0.0000000000
-0.0682661533 -0.7460424900 0.6907705665 0.0000000000
-0.0692068338 -0.7485949397 0.6914432049 0.0000000000
-0.0700427294 -0.7511386275 0.6920409203 0.0000000000
-0.0707284212 -0.7536724806 0.6925311685 0.0000000000
-0.0712941885 -0.7561986446 0.6929357052 0.0000000000
-0.0717765093 -0.7587192059 0.6932805777 0.0000000000
-0.0721051693 -0.7612323761 0.6935155988 0.0000000000
-0.0723431110 -0.7637411356 0.6936857104 0.0000000000
-0.0724215508 -0.7662441134 0.6937418580 0.0000000000
-0.0724321604 -0.7687448263 0.6937494278 0.0000000000
-0.0723220110 -0.7712424397 0.6936706305 0.0000000000
-0.0721148252 -0.7737382650 0.6935225129 0.0000000000
-0.0718029737 -0.7762328386 0.6932994723 0.0000000000
-0.0713460445 -0.7787260413 0.6929727793 0.0000000000
-0.0707864761 -0.7812195420 0.6925726533 0.0000000000
-0.0701217651 -0.7837140560 0.6920973659 0.0000000000
-0.0693416595 -0.7862100601 0.6915395856 0.0000000000
-0.0683690310 -0.7887076139 0.6908441782 0.0000000000
-0.0673143864 -0.7912088633 0.6900900602 0.0000000000
-0.0660901070 -0.7937138081 0.6892145872 0.0000000000
-0.0646901131 -0.7962236404 0.6882135272 0.0000000000
-0.0632001162 -0.7987395525 0.6871481538 0.0000000000
-0.0614526272 -0.8012623787 0.6858986616 0.0000000000
-0.0594252348 -0.8037939072 0.6844489574 0.0000000000
-0.0571539402 -0.8063357472 0.6828249693 0.0000000000
-0.0547297001 -0.8088888526 0.6810914874 0.0000000000
-0.0518248081 -0.8114575148 0.6790143847 0.0000000000
-0.0483641624 -0.8140458465 0.6765398979 0.0000000000
-0.0444097519 -0.8166565895 0.6737123728 0.0000000000
-0.0394804478 -0.8193011284 0.6701877713 0.0000000000
-0.0321694613 -0.8220124245 0.6649602056 0.0000000000
-0.0280187130 -0.7128276825 0.6587939858 0.0000000000
-0.0385782719 -0.7161918283 0.6663733125 0.0000000000
-0.0445443392 -0.7191877961 0.6706554890 0.0000000000
-0.0490412712 -0.7220578194 0.6738831997 0.0000000000
-0.0527274609 -0.7248547077 0.6765290499 0.0000000000
-0.0557311773 -0.7275921106 0.6786850095 0.0000000000
-0.0583056211 -0.7302899361 0.6805328131 0.0000000000
-0.0605220795 -0.7329552174 0.6821237206 0.0000000000
-0.0624989271 -0.7355971336 0.6835426688 0.0000000000
-0.0641877651 -0.7382146120 0.6847547293 0.0000000000
-0.0656417608 -0.7408123612 0.6857984662 0.0000000000
-0.0669338703 -0.7433955073 0.6867257953 0.0000000000
-0.0680626631 -0.7459651828 0.6875361204 0.0000000000
-0.0690287352 -0.7485224009 0.6882295609 0.0000000000
-0.0698632002 -0.7510696054 0.6888284683 0.0000000000
-0.0705657005 -0.7536077499 0.6893327236 0.0000000000
-0.0711311102 -0.7561373711 0.6897384524 0.0000000000
-0.0715907812 -0.7586606741 0.6900684834 0.0000000000
-0.0719180107 -0.7611773610 0.6903033853 0.0000000000
-0.0721561909 -0.7636896968 0.6904742122 0.0000000000
-0.0722575188 -0.7661969066 0.6905469894 0.0000000000
-0.0722726583 -0.7687012553 0.6905578375 0.0000000000
-0.0721604824 -0.7712022662 0.6904773712 0.0000000000
-0.0719486475 -0.7737014890 0.6903253198 0.0000000000
-0.0716423988 -0.7761996388 0.6901054978 0.0000000000
-0.0711824894 -0.7786962986 0.6897754073 0.0000000000
-0.0706256628 -0.7811933160 0.6893757582 0.0000000000
-0.0699663162 -0.7836913466 0.6889024973 0.0000000000
-0.0691868067 -0.7861908674 0.6883429885 0.0000000000
-0.0682088137 -0.7886918783 0.6876409650 0.0000000000
-0.0671271086 -0.7911963463 0.6868645549 0.0000000000
-0.0659174919 -0.7937049866 0.6859963536 0.0000000000
-0.0645029545 -0.7962182760 0.6849810481 0.0000000000
-0.0630042553 -0.7987377644 0.6839053631 0.0000000000
-0.0612169504 -0.8012642264 0.6826224923 0.0000000000
-0.0592119694 -0.8037993312 0.6811833978 0.0000000000
-0.0569152832 -0.8063449860 0.6795349717 0.0000000000
-0.0544568300 -0.8089020848 0.6777702570 0.0000000000
-0.0515242815 -0.8114748597 0.6756654978 0.0000000000
-0.0480704308 -0.8140670061 0.6731864214 0.0000000000
-0.0440286398 -0.8166829944 0.6702853441 0.0000000000
-0.0390374660 -0.8193327188 0.6667028069 0.0000000000
-0.0314106941 -0.8220543265 0.6612286568 0.0000000000
-0.0261842012 -0.7125816345 0.6542659998 0.0000000000
-0.0377788544 -0.7160288692 0.6626198292 0.0000000000
-0.0439227819 -0.7190428376 0.6670464873 0.0000000000
-0.0485405922 -0.7219260335 0.6703736782 0.0000000000
-0.0523002148 -0.7247323990 0.6730825305 0.0000000000
-0.0553705692 -0.7274783850 0.6752947569 0.0000000000
-0.0579836369 -0.7301827073 0.6771773696 0.0000000000
-0.0602400303 -0.7328544855 0.6788031459 0.0000000000
-0.0622417927 -0.7355017662 0.6802454591 0.0000000000
-0.0639415979 -0.7381236553 0.6814700961 0.0000000000
-0.0654095411 -0.7407259345 0.6825277805 0.0000000000
-0.0667120218 -0.7433133721 0.6834662557 0.0000000000
-0.0678514242 -0.7458872199 0.6842871308 0.0000000000
-0.0688401461 -0.7484491467 0.6849995852 0.0000000000
-0.0696610212 -0.7509994507 0.6855909824 0.0000000000
-0.0703874826 -0.7535421848 0.6861143708 0.0000000000
-0.0709675550 -0.7560759783 0.6865323782 0.0000000000
-0.0714216232 -0.7586025596 0.6868594885 0.0000000000
-0.0717436075 -0.7611225843 0.6870915294 0.0000000000
-0.0719678402 -0.7636380196 0.6872530580 0.0000000000
-0.0720982552 -0.7661496997 0.6873470545 0.0000000000
-0.0721117258 -0.7686575055 0.6873567104 0.0000000000
-0.0719981194 -0.7711619735 0.6872748137 0.0000000000
-0.0717815161 -0.7736645937 0.6871188283 0.0000000000
-0.0714840889 -0.7761664391 0.6869044900 0.0000000000
-0.0710178614 -0.7786664367 0.6865686178 0.0000000000
-0.0704680681 -0.7811670899 0.6861724854 0.0000000000
-0.0698031187 -0.7836685181 0.6856932640 0.0000000000
-0.0690181255 -0.7861714959 0.6851277351 0.0000000000
-0.0680518150 -0.7886760831 0.6844314933 0.0000000000
-0.0669372082 -0.7911838293 0.6836284995 0.0000000000
-0.0657323599 -0.7936960459 0.6827604771 0.0000000000
-0.0643463135 -0.7962130308 0.6817618012 0.0000000000
-0.0628066063 -0.7987359762 0.6806523800 0.0000000000
-0.0609896183 -0.8012660742 0.6793432832 0.0000000000
-0.0589936972 -0.8038048744 0.6779052019 0.0000000000
-0.0566760302 -0.8063542843 0.6762353182 0.0000000000
-0.0542136431 -0.8089151978 0.6744611263 0.0000000000
-0.0512310266 -0.8114922047 0.6723122001 0.0000000000
-0.0477657318 -0.8140884042 0.6698154211 0.0000000000
-0.0436698198 -0.8167091012 0.6668643951 0.0000000000
-0.0385801792 -0.8193646073 0.6631972194 0.0000000000
-0.0303909779 -0.8221012950 0.6572969556 0.0000000000
-0.0235718489 -0.7122769952 0.6491572261 0.0000000000
-0.0369173288 -0.7158610225 0.6588092446 0.0000000000
-0.0433624983 -0.7189018130 0.6634706855 0.0000000000
-0.0481526852 -0.7218015194 0.6669350863 0.0000000000
-0.0518620014 -0.7246090174 0.6696179509 0.0000000000
-0.0550127029 -0.7273645401 0.6718966365 0.0000000000
-0.0576548576 -0.7300748825 0.6738075018 0.0000000000
-0.0599530935 -0.7327531576 0.6754696965 0.0000000000
-0.0619685650 -0.7354051471 0.6769273281 0.0000000000
-0.0636963844 -0.7380325198 0.6781769395 0.0000000000
-0.0651774406 -0.7406392694 0.6792481542 0.0000000000
-0.0664858818 -0.7432308197 0.6801944971 0.0000000000
-0.0676558018 -0.7458098531 0.6810405254 0.0000000000
-0.0686490536 -0.7483756542 0.6817589402 0.0000000000
-0.0694583654 -0.7509290576 0.6823443174 0.0000000000
-0.0701971054 -0.7534759045 0.6828785539 0.0000000000
-0.0707948208 -0.7560140491 0.6833108664 0.0000000000
-0.0712410212 -0.7585439086 0.6836335659 0.0000000000
-0.0715923309 -0.7610685229 0.6838876009 0.0000000000
-0.0717988014 -0.7635868788 0.6840370893 0.0000000000
-0.0719311237 -0.7661021352 0.6841327548 0.0000000000
-0.0719478130 -0.7686135173 0.6841447949 0.0000000000
-0.0718351603 -0.7711215615 0.6840632558 0.0000000000
-0.0716118813 -0.7736275196 0.6839017868 0.0000000000
-0.0713207722 -0.7761330009 0.6836912632 0.0000000000
-0.0708571672 -0.7786365747 0.6833559871 0.0000000000
-0.0702846050 -0.7811403275 0.6829419136 0.0000000000
-0.0696172714 -0.7836453319 0.6824592352 0.0000000000
-0.0688250065 -0.7861517072 0.6818861961 0.0000000000
-0.0678691864 -0.7886600494 0.6811949015 0.0000000000
-0.0667785406 -0.7911715508 0.6804060936 0.0000000000
-0.0655310154 -0.7936869860 0.6795038581 0.0000000000
-0.0641494989 -0.7962076068 0.6785046458 0.0000000000
-0.0626009703 -0.7987341285 0.6773847938 0.0000000000
-0.0607948303 -0.8012678623 0.6760785580 0.0000000000
-0.0587687492 -0.8038103580 0.6746131182 0.0000000000
-0.0564512014 -0.8063635230 0.6729369760 0.0000000000
-0.0539746284 -0.8089282513 0.6711457968 0.0000000000
-0.0509546995 -0.8115094304 0.6689615846 0.0000000000
-0.0474590063 -0.8141098619 0.6664334536 0.0000000000
-0.0432291031 -0.8167364597 0.6633741260 0.0000000000
-0.0379205942 -0.8193999529 0.6595348716 0.0000000000
-0.0296239853 -0.8221435547 0.6535343528 0.0000000000
-0.0360413790 -0.7156916857 0.6549752951 0.0000000000
-0.0427479744 -0.7187566161 0.6598442793 0.0000000000
-0.0477079153 -0.7216728926 0.6634451151 0.0000000000
-0.0514463186 -0.7244868279 0.6661592722 0.0000000000
-0.0546510220 -0.7272500992 0.6684857607 0.0000000000
-0.0573112965 -0.7299658060 0.6704171896 0.0000000000
-0.0596362352 -0.7326498032 0.6721050143 0.0000000000
-0.0616866350 -0.7353078723 0.6735936403 0.0000000000
-0.0634502172 -0.7379410863 0.6748739481 0.0000000000
-0.0649437904 -0.7405523658 0.6759581566 0.0000000000
-0.0662742853 -0.7431487441 0.6769241691 0.0000000000
-0.0674620867 -0.7457323670 0.6777865291 0.0000000000
-0.0684440136 -0.7483013272 0.6784994602 0.0000000000
-0.0692745447 -0.7508593202 0.6791023612 0.0000000000
-0.0700041056 -0.7534094453 0.6796320081 0.0000000000
-0.0706021786 -0.7559511662 0.6800661683 0.0000000000
-0.0710715055 -0.7584854960 0.6804069281 0.0000000000
-0.0714403391 -0.7610142827 0.6806747913 0.0000000000
-0.0716472864 -0.7635361552 0.6808249354 0.0000000000
-0.0717846155 -0.7660550475 0.6809247136 0.0000000000
-0.0717667341 -0.7685689926 0.6809116602 0.0000000000
-0.0716763735 -0.7710811496 0.6808460951 0.0000000000
-0.0714994669 -0.7735916972 0.6807175875 0.0000000000
-0.0711928606 -0.7761002779 0.6804950237 0.0000000000
-0.0707287788 -0.7786072493 0.6801581383 0.0000000000
-0.0701177120 -0.7811138630 0.6797145009 0.0000000000
-0.0694320202 -0.7836220264 0.6792166829 0.0000000000
-0.0686572790 -0.7861322165 0.6786541939 0.0000000000
-0.0677069426 -0.7886441350 0.6779642701 0.0000000000
-0.0666211843 -0.7911592126 0.6771760583 0.0000000000
-0.0653473139 -0.7936780453 0.6762512326 0.0000000000
-0.0639489889 -0.7962021232 0.6752361059 0.0000000000
-0.0624053478 -0.7987323403 0.6741153598 0.0000000000
-0.0605407953 -0.8012697697 0.6727617383 0.0000000000
-0.0585449934 -0.8038159013 0.6713128090 0.0000000000
-0.0562294722 -0.8063727617 0.6696317196 0.0000000000
-0.0537347794 -0.8089413643 0.6678206325 0.0000000000
-0.0506772995 -0.8115266562 0.6656008363 0.0000000000
-0.0470975637 -0.8141320348 0.6630019546 0.0000000000
-0.0428578854 -0.8167629242 0.6599240899 0.0000000000
-0.0373234749 -0.8194343448 0.6559062004 0.0000000000
-0.0288417339 -0.8221862912 0.6497483850 0.0000000000
-0.0351477861 -0.7155206203 0.6511157155 0.0000000000
-0.0421082973 -0.7186092734 0.6561881900 0.0000000000
-0.0472198725 -0.7215409875 0.6599132419 0.0000000000
-0.0512386560 -0.7243779898 0.6628419161 0.0000000000
-0.0542809963 -0.7271349430 0.6650590301 0.0000000000
-0.0569815636 -0.7298573256 0.6670269966 0.0000000000
-0.0593895912 -0.7325503826 0.6687819362 0.0000000000
-0.0614148378 -0.7352108955 0.6702578068 0.0000000000
-0.0632009506 -0.7378492951 0.6715593934 0.0000000000
-0.0647134781 -0.7404653430 0.6726617217 0.0000000000
-0.0660616159 -0.7430664301 0.6736441255 0.0000000000
-0.0672680140 -0.7456547022 0.6745232940 0.0000000000
-0.0682393312 -0.7482268214 0.6752310991 0.0000000000
-0.0690917969 -0.7507894635 0.6758524179 0.0000000000
-0.0698100328 -0.7533426881 0.6763758063 0.0000000000
-0.0704088211 -0.7558881044 0.6768120527 0.0000000000
-0.0709167719 -0.7584275007 0.6771822572 0.0000000000
-0.0713294744 -0.7609612942 0.6774830818 0.0000000000
-0.0715745687 -0.7634878755 0.6776617169 0.0000000000
-0.0716518164 -0.7660082579 0.6777179241 0.0000000000
-0.0716084242 -0.7685249448 0.6776863933 0.0000000000
-0.0715281963 -0.7710409164 0.6776279211 0.0000000000
-0.0714244843 -0.7735566497 0.6775522828 0.0000000000
-0.0710449219 -0.7760670185 0.6772756577 0.0000000000
-0.0705995560 -0.7785778642 0.6769511700 0.0000000000
-0.0699253082 -0.7810868025 0.6764597297 0.0000000000
-0.0692300797 -0.7835984826 0.6759530902 0.0000000000
-0.0684596300 -0.7861123681 0.6753917933 0.0000000000
-0.0675228834 -0.7886279821 0.6747090220 0.0000000000
-0.0664464235 -0.7911466956 0.6739245057 0.0000000000
-0.0651783943 -0.7936691046 0.6730004549 0.0000000000
-0.0637534857 -0.7961966991 0.6719620824 0.0000000000
-0.0622023344 -0.7987304926 0.6708316207 0.0000000000
-0.0603421926 -0.8012715578 0.6694760919 0.0000000000
-0.0583373308 -0.8038214445 0.6680150628 0.0000000000
-0.0559864044 -0.8063821793 0.6663018465 0.0000000000
-0.0534355640 -0.8089549541 0.6644428968 0.0000000000
-0.0503804684 -0.8115441799 0.6622165442 0.0000000000
-0.0467797518 -0.8141537309 0.6595925093 0.0000000000
-0.0424686670 -0.8167896867 0.6564508080 0.0000000000
-0.0367925167 -0.8194677234 0.6523143053 0.0000000000
-0.0277273655 -0.8222353458 0.6457080841 0.0000000000
-0.0340251923 -0.7153325677 0.6470754743 0.0000000000
-0.0414837599 -0.7184626460 0.6525315642 0.0000000000
-0.0466945171 -0.7214062214 0.6563432813 0.0000000000
-0.0507606268 -0.7242510915 0.6593176723 0.0000000000
-0.0539325476 -0.7270208001 0.6616380215 0.0000000000
-0.0566537380 -0.7297486663 0.6636285782 0.0000000000
-0.0591298342 -0.7324498892 0.6654399037 0.0000000000
-0.0611517429 -0.7351141572 0.6669188738 0.0000000000
-0.0629484653 -0.7377570271 0.6682332158 0.0000000000
-0.0644928217 -0.7403786778 0.6693629622 0.0000000000
-0.0658478737 -0.7429838777 0.6703541875 0.0000000000
-0.0670669079 -0.7455765009 0.6712459326 0.0000000000
-0.0680315495 -0.7481520176 0.6719515920 0.0000000000
-0.0689084530 -0.7507193685 0.6725931168 0.0000000000
-0.0696436167 -0.7532769442 0.6731308699 0.0000000000
-0.0702245235 -0.7558252215 0.6735556722 0.0000000000
-0.0707591772 -0.7583692074 0.6739468575 0.0000000000
-0.0711691380 -0.7609065175 0.6742467880 0.0000000000
-0.0714240074 -0.7634369135 0.6744331717 0.0000000000
-0.0714824200 -0.7659602761 0.6744759083 0.0000000000
-0.0714263916 -0.7684801817 0.6744349599 0.0000000000
-0.0713951588 -0.7710009813 0.6744120717 0.0000000000
-0.0713242292 -0.7735209465 0.6743602157 0.0000000000
-0.0709056854 -0.7760338783 0.6740540862 0.0000000000
-0.0703941584 -0.7785469294 0.6736798286 0.0000000000
-0.0697692633 -0.7810603380 0.6732227802 0.0000000000
-0.0690635443 -0.7835753560 0.6727064848 0.0000000000
-0.0682737827 -0.7860925198 0.6721287370 0.0000000000
-0.0673483610 -0.7886118889 0.6714518070 0.0000000000
-0.0662546158 -0.7911339998 0.6706517339 0.0000000000
-0.0649816990 -0.7936600447 0.6697205901 0.0000000000
-0.0635718107 -0.7961912751 0.6686892509 0.0000000000
-0.0619938374 -0.7987287045 0.6675348878 0.0000000000
-0.0601429939 -0.8012734056 0.6661809683 0.0000000000
-0.0581034422 -0.8038270473 0.6646890640 0.0000000000
-0.0557434559 -0.8063915968 0.6629627347 0.0000000000
-0.0531702042 -0.8089683056 0.6610803008 0.0000000000
-0.0500895977 -0.8115617037 0.6588268280 0.0000000000
-0.0464612246 -0.8141755462 0.6561726332 0.0000000000
-0.0420426130 -0.8168170452 0.6529403925 0.0000000000
-0.0362429619 -0.8195014596 0.6486977935 0.0000000000
-0.0263156891 -0.8222902417 0.6414359212 0.0000000000
-0.0328562260 -0.7151405811 0.6429868937 0.0000000000
-0.0407774448 -0.7183098793 0.6488033533 0.0000000000
-0.0461877584 -0.7212723494 0.6527761221 0.0000000000
-0.0503661633 -0.7241293788 0.6558441520 0.0000000000
-0.0535672903 -0.7269053459 0.6581946611 0.0000000000
-0.0563559532 -0.7296416163 0.6602424383 0.0000000000
-0.0588693619 -0.7323491573 0.6620879769 0.0000000000
-0.0609462261 -0.7350204587 0.6636129618 0.0000000000
-0.0627168417 -0.7376657128 0.6649131179 0.0000000000
-0.0642647743 -0.7402913570 0.6660496593 0.0000000000
-0.0656198263 -0.7429003716 0.6670446992 0.0000000000
-0.0668569803 -0.7454976439 0.6679530740 0.0000000000
-0.0678236485 -0.7480769753 0.6686629653 0.0000000000
-0.0687210560 -0.7506489754 0.6693218946 0.0000000000
-0.0694727898 -0.7532109022 0.6698737741 0.0000000000
-0.0700691938 -0.7557633519 0.6703116894 0.0000000000
-0.0705852509 -0.7583101988 0.6706906557 0.0000000000
-0.0709949732 -0.7608510852 0.6709915400 0.0000000000
-0.0712394714 -0.7633847594 0.6711710691 0.0000000000
-0.0712776184 -0.7659111023 0.6711990237 0.0000000000
-0.0712363720 -0.7684350610 0.6711688042 0.0000000000
-0.0712507963 -0.7709606290 0.6711794734 0.0000000000
-0.0711421967 -0.7734832168 0.6710995436 0.0000000000
-0.0707477331 -0.7760002613 0.6708099842 0.0000000000
-0.0701944828 -0.7785159945 0.6704037786 0.0000000000
-0.0695707798 -0.7810330987 0.6699457169 0.0000000000
-0.0689008236 -0.7835522890 0.6694537997 0.0000000000
-0.0680978298 -0.7860727906 0.6688643098 0.0000000000
-0.0671712160 -0.7885956764 0.6681838036 0.0000000000
-0.0660568476 -0.7911212444 0.6673656106 0.0000000000
-0.0647897720 -0.7936509848 0.6664351821 0.0000000000
-0.0633769035 -0.7961858511 0.6653977036 0.0000000000
-0.0617783070 -0.7987268567 0.6642238498 0.0000000000
-0.0599379539 -0.8012752533 0.6628725529 0.0000000000
-0.0578627586 -0.8038326502 0.6613487601 0.0000000000
-0.0555027723 -0.8064010143 0.6596158743 0.0000000000
-0.0528885126 -0.8089818358 0.6576963067 0.0000000000
-0.0497921705 -0.8115792871 0.6554226875 0.0000000000
-0.0461293459 -0.8141975403 0.6527331471 0.0000000000
-0.0416125059 -0.8168445826 0.6494165659 0.0000000000
-0.0356049538 -0.8195368052 0.6450052857 0.0000000000
-0.0249329805 -0.8223446608 0.6371690631 0.0000000000
-0.0316791534 -0.7149475813 0.6388776898 0.0000000000
-0.0400955677 -0.7181584239 0.6450810432 0.0000000000
-0.0456233025 -0.7211342454 0.6491553783 0.0000000000
-0.0499321222 -0.7240047455 0.6523312926 0.0000000000
-0.0532042980 -0.7267897129 0.6547429562 0.0000000000
-0.0560636520 -0.7295346260 0.6568505168 0.0000000000
-0.0585933924 -0.7322471738 0.6587150693 0.0000000000
-0.0606768131 -0.7349228859 0.6602506638 0.0000000000
-0.0624631643 -0.7375729680 0.6615673900 0.0000000000
-0.0640338659 -0.7402036786 0.6627250314 0.0000000000
-0.0654023886 -0.7428171635 0.6637336612 0.0000000000
-0.0666244030 -0.7454174757 0.6646343470 0.0000000000
-0.0676183701 -0.7480018735 0.6653670669 0.0000000000
-0.0685259104 -0.7505779862 0.6660359502 0.0000000000
-0.0692822933 -0.7531437874 0.6665934324 0.0000000000
-0.0699164867 -0.7557014227 0.6670609117 0.0000000000
-0.0704070330 -0.7582508922 0.6674224734 0.0000000000
-0.0707921982 -0.7607945204 0.6677063107 0.0000000000
-0.0710142851 -0.7633311152 0.6678700447 0.0000000000
-0.0710444450 -0.7658609152 0.6678922772 0.0000000000
-0.0710146427 -0.7683889270 0.6678702831 0.0000000000
-0.0710895061 -0.7709197402 0.6679255366 0.0000000000
-0.0709321499 -0.7734447718 0.6678094864 0.0000000000
-0.0705511570 -0.7759656906 0.6675286293 0.0000000000
-0.0700047016 -0.7784852386 0.6671258807 0.0000000000
-0.0693991184 -0.7810062170 0.6666796207 0.0000000000
-0.0687183142 -0.7835288048 0.6661777496 0.0000000000
-0.0679278374 -0.7860531211 0.6655952334 0.0000000000
-0.0669933558 -0.7885794640 0.6649063826 0.0000000000
-0.0658806562 -0.7911086679 0.6640862226 0.0000000000
-0.0646061897 -0.7936419249 0.6631468534 0.0000000000
-0.0631873608 -0.7961803675 0.6621011496 0.0000000000
-0.0615739822 -0.7987250090 0.6609119773 0.0000000000
-0.0597254038 -0.8012771010 0.6595494747 0.0000000000
-0.0576295853 -0.8038383126 0.6580046415 0.0000000000
-0.0552613735 -0.8064104319 0.6562591791 0.0000000000
-0.0525947809 -0.8089955449 0.6542937160 0.0000000000
-0.0494683981 -0.8115971684 0.6519894600 0.0000000000
-0.0457776785 -0.8142197728 0.6492691636 0.0000000000
-0.0411661863 -0.8168723583 0.6458702683 0.0000000000
-0.0350835323 -0.8195703030 0.6413869858 0.0000000000
-0.0229291916 -0.8224110603 0.6324285269 0.0000000000
-0.0301564932 -0.7147288918 0.6344980001 0.0000000000
-0.0393160582 -0.7179996967 0.6412746906 0.0000000000
-0.0450751781 -0.7209968567 0.6455355287 0.0000000000
-0.0494443178 -0.7238762379 0.6487680674 0.0000000000
-0.0529063940 -0.7266779542 0.6513293982 0.0000000000
-0.0556880236 -0.7294222116 0.6533873081 0.0000000000
-0.0583057404 -0.7321442962 0.6553240418 0.0000000000
-0.0604481697 -0.7348273993 0.6569091082 0.0000000000
-0.0622091293 -0.7374799252 0.6582120061 0.0000000000
-0.0637867451 -0.7401149273 0.6593791246 0.0000000000
-0.0651894808 -0.7427340150 0.6604170203 0.0000000000
-0.0663992167 -0.7453375459 0.6613119841 0.0000000000
-0.0674334764 -0.7479274869 0.6620771885 0.0000000000
-0.0683494806 -0.7505077124 0.6627549529 0.0000000000
-0.0690933466 -0.7530766129 0.6633051634 0.0000000000
-0.0697326660 -0.7556381226 0.6637782454 0.0000000000
-0.0702348948 -0.7581916451 0.6641497612 0.0000000000
-0.0705944300 -0.7607380152 0.6644158363 0.0000000000
-0.0707386732 -0.7632757425 0.6645225286 0.0000000000
-0.0708162785 -0.7658107877 0.6645798683 0.0000000000
-0.0708327293 -0.7683438063 0.6645920873 0.0000000000
-0.0709140301 -0.7708783746 0.6646522880 0.0000000000
-0.0706998110 -0.7734056711 0.6644937992 0.0000000000
-0.0703538656 -0.7759310603 0.6642377973 0.0000000000
-0.0697886944 -0.7784538865 0.6638196707 0.0000000000
-0.0692151785 -0.7809790373 0.6633953452 0.0000000000
-0.0685532093 -0.7835055590 0.6629056334 0.0000000000
-0.0677671432 -0.7860334516 0.6623240709 0.0000000000
-0.0668116808 -0.7885631919 0.6616172194 0.0000000000
-0.0657074451 -0.7910960317 0.6608002186 0.0000000000
-0.0644367933 -0.7936329246 0.6598601341 0.0000000000
-0.0629930496 -0.7961748838 0.6587918997 0.0000000000
-0.0613744259 -0.7987231612 0.6575944424 0.0000000000
-0.0595122576 -0.8012789488 0.6562167406 0.0000000000
-0.0574014187 -0.8038439155 0.6546550393 0.0000000000
-0.0550239086 -0.8064199090 0.6528960466 0.0000000000
-0.0523415804 -0.8090088964 0.6509115696 0.0000000000
-0.0491684675 -0.8116148710 0.6485639811 0.0000000000
-0.0454248190 -0.8142421842 0.6457942128 0.0000000000
-0.0409023762 -0.8168975711 0.6424482465 0.0000000000
-0.0344921350 -0.8196050525 0.6377058029 0.0000000000
-0.0195226669 -0.8225044012 0.6266306043 0.0000000000
-0.0284180641 -0.7144938707 0.6299412847 0.0000000000
-0.0384589434 -0.7178351283 0.6373981237 0.0000000000
-0.0445209742 -0.7208587527 0.6418999434 0.0000000000
-0.0489858389 -0.7237492800 0.6452156901 0.0000000000
-0.0525319576 -0.7265610099 0.6478492022 0.0000000000
-0.0553251505 -0.7293103337 0.6499235034 0.0000000000
-0.0580041409 -0.7320402861 0.6519129276 0.0000000000
-0.0601514578 -0.7347277403 0.6535076499 0.0000000000
-0.0619558096 -0.7373867631 0.6548476815 0.0000000000
-0.0635551214 -0.7400267720 0.6560354233 0.0000000000
-0.0649487972 -0.7426492572 0.6570704579 0.0000000000
-0.0661795139 -0.7452576160 0.6579843760 0.0000000000
-0.0672518015 -0.7478531003 0.6587806344 0.0000000000
-0.0681648254 -0.7504368424 0.6594586968 0.0000000000
-0.0689133406 -0.7530096769 0.6600145698 0.0000000000
-0.0695252419 -0.7555736899 0.6604689956 0.0000000000
-0.0700280666 -0.7581309676 0.6608424187 0.0000000000
-0.0703780651 -0.7606806755 0.6611023545 0.0000000000
-0.0705233812 -0.7632221580 0.6612101793 0.0000000000
-0.0705807209 -0.7657603025 0.6612528563 0.0000000000
-0.0706807375 -0.7682993412 0.6613270640 0.0000000000
-0.0707364082 -0.7708368897 0.6613684297 0.0000000000
-0.0704975128 -0.7733671665 0.6611910462 0.0000000000
-0.0701472759 -0.7758961320 0.6609309912 0.0000000000
-0.0696140528 -0.7784231901 0.6605349183 0.0000000000
-0.0690158606 -0.7809516191 0.6600908041 0.0000000000
-0.0683860779 -0.7834821939 0.6596230865 0.0000000000
-0.0676208735 -0.7860139608 0.6590548754 0.0000000000
-0.0666229725 -0.7885468006 0.6583135724 0.0000000000
-0.0655347109 -0.7910833955 0.6575055718 0.0000000000
-0.0642677546 -0.7936238647 0.6565645933 0.0000000000
-0.0627955198 -0.7961693406 0.6554712057 0.0000000000
-0.0611773729 -0.7987213135 0.6542695761 0.0000000000
-0.0592943430 -0.8012807965 0.6528711319 0.0000000000
-0.0571730137 -0.8038495779 0.6512958407 0.0000000000
-0.0547956228 -0.8064293265 0.6495302320 0.0000000000
-0.0520908833 -0.8090223074 0.6475216150 0.0000000000
-0.0488801003 -0.8116325140 0.6451372504 0.0000000000
-0.0450978279 -0.8142642379 0.6423283815 0.0000000000
-0.0404431820 -0.8169257045 0.6388716102 0.0000000000
-0.0338388681 -0.8196408749 0.6339670420 0.0000000000
-0.0259753466 -0.7142068148 0.6248415709 0.0000000000
-0.0377415419 -0.7176799774 0.6336126328 0.0000000000
-0.0439397097 -0.7207183838 0.6382328868 0.0000000000
-0.0484489202 -0.7236168981 0.6415942907 0.0000000000
-0.0519481897 -0.7264303565 0.6442026496 0.0000000000
-0.0549824238 -0.7291994095 0.6464645267 0.0000000000
-0.0576919317 -0.7319353819 0.6484843493 0.0000000000
-0.0598524809 -0.7346277237 0.6500947475 0.0000000000
-0.0617012978 -0.7372932434 0.6514729261 0.0000000000
-0.0633122921 -0.7399377823 0.6526739001 0.0000000000
-0.0647331476 -0.7425655127 0.6537330747 0.0000000000
-0.0659581423 -0.7451773882 0.6546461582 0.0000000000
-0.0670461655 -0.7477774620 0.6554572582 0.0000000000
-0.0679669380 -0.7503652573 0.6561436653 0.0000000000
-0.0687189102 -0.7529419065 0.6567041874 0.0000000000
-0.0693686008 -0.7555111647 0.6571885347 0.0000000000
-0.0697783232 -0.7580685616 0.6574939489 0.0000000000
-0.0701595545 -0.7606231570 0.6577780843 0.0000000000
-0.0702881813 -0.7631677985 0.6578739882 0.0000000000
-0.0704283714 -0.7657122016 0.6579785347 0.0000000000
-0.0705369711 -0.7682551146 0.6580594182 0.0000000000
-0.0705182552 -0.7707942128 0.6580454707 0.0000000000
-0.0703204870 -0.7733291388 0.6578980684 0.0000000000
-0.0699265003 -0.7758608460 0.6576042771 0.0000000000
-0.0694152117 -0.7783920169 0.6572232246 0.0000000000
-0.0688667297 -0.7809249163 0.6568143368 0.0000000000
-0.0682075024 -0.7834585905 0.6563229561 0.0000000000
-0.0674581528 -0.7859941721 0.6557643414 0.0000000000
-0.0664451122 -0.7885304093 0.6550092101 0.0000000000
-0.0653533936 -0.7910706401 0.6541954279 0.0000000000
-0.0640717745 -0.7936146855 0.6532400250 0.0000000000
-0.0626099110 -0.7961638570 0.6521502733 0.0000000000
-0.0609630346 -0.7987194657 0.6509225965 0.0000000000
-0.0590648651 -0.8012827039 0.6495078206 0.0000000000
-0.0569436550 -0.8038552403 0.6479265094 0.0000000000
-0.0545697212 -0.8064387441 0.6461570263 0.0000000000
-0.0518392324 -0.8090357184 0.6441215277 0.0000000000
-0.0485841036 -0.8116502762 0.6416950226 0.0000000000
-0.0447608232 -0.8142865300 0.6388450265 0.0000000000
-0.0399808884 -0.8169539571 0.6352819800 0.0000000000
-0.0331456661 -0.8196775317 0.6301866770 0.0000000000
-0.0228297710 -0.7138676047 0.6191939712 0.0000000000
-0.0368301868 -0.7175107002 0.6296696663 0.0000000000
-0.0433030128 -0.7205739021 0.6345128417 0.0000000000
-0.0478841066 -0.7234822512 0.6379407048 0.0000000000
-0.0514409542 -0.7263042927 0.6406020522 0.0000000000
-0.0545822382 -0.7290846109 0.6429524422 0.0000000000
-0.0573689938 -0.7318296432 0.6450376511 0.0000000000
-0.0595496893 -0.7345272899 0.6466693878 0.0000000000
-0.0614293814 -0.7371985316 0.6480758190 0.0000000000
-0.0630668402 -0.7398484945 0.6493009925 0.0000000000
-0.0645170212 -0.7424815893 0.6503860950 0.0000000000
-0.0657327175 -0.7450968027 0.6512957215 0.0000000000
-0.0668114424 -0.7477002144 0.6521028876 0.0000000000
-0.0677490234 -0.7502925992 0.6528044343 0.0000000000
-0.0685071945 -0.7528732419 0.6533717513 0.0000000000
-0.0691765547 -0.7554470301 0.6538725495 0.0000000000
-0.0695980787 -0.7580085397 0.6541879177 0.0000000000
-0.0698969364 -0.7605639100 0.6544115543 0.0000000000
-0.0701065063 -0.7631150484 0.6545684338 0.0000000000
-0.0702894926 -0.7656643987 0.6547052860 0.0000000000
-0.0703918934 -0.7682106495 0.6547818780 0.0000000000
-0.0703455210 -0.7707526088 0.6547472477 0.0000000000
-0.0701173544 -0.7732904553 0.6545764804 0.0000000000
-0.0697047710 -0.7758253813 0.6542678475 0.0000000000
-0.0691980124 -0.7783603668 0.6538886428 0.0000000000
-0.0686694384 -0.7808973193 0.6534930468 0.0000000000
-0.0680454969 -0.7834352255 0.6530262232 0.0000000000
-0.0672640800 -0.7859739661 0.6524416208 0.0000000000
-0.0662777424 -0.7885141373 0.6517035365 0.0000000000
-0.0651513338 -0.7910577059 0.6508607268 0.0000000000
-0.0638757944 -0.7936054468 0.6499062777 0.0000000000
-0.0624225140 -0.7961583734 0.6488189697 0.0000000000
-0.0607694387 -0.7987176180 0.6475821137 0.0000000000
-0.0588535070 -0.8012845516 0.6461485028 0.0000000000
-0.0567225218 -0.8038609028 0.6445540190 0.0000000000
-0.0543434620 -0.8064482212 0.6427738070 0.0000000000
-0.0515793562 -0.8090492487 0.6407057047 0.0000000000
-0.0483075380 -0.8116679192 0.6382575631 0.0000000000
-0.0443817377 -0.8143094182 0.6353200674 0.0000000000
-0.0395158529 -0.8169823289 0.6316792965 0.0000000000
-0.0323631763 -0.8197157383 0.6263272762 0.0000000000
-0.0358264446 -0.7173344493 0.6256439686 0.0000000000
-0.0426518917 -0.7204279900 0.6307702661 0.0000000000
-0.0473594666 -0.7233499885 0.6343058348 0.0000000000
-0.0510226488 -0.7261836529 0.6370571852 0.0000000000
-0.0542012453 -0.7289707661 0.6394444704 0.0000000000
-0.0570003986 -0.7317208052 0.6415467262 0.0000000000
-0.0592701435 -0.7344278693 0.6432514787 0.0000000000
-0.0611695051 -0.7371042371 0.6446779966 0.0000000000
-0.0628215075 -0.7397589087 0.6459187269 0.0000000000
-0.0642837286 -0.7423965335 0.6470169425 0.0000000000
-0.0655198097 -0.7450165749 0.6479452848 0.0000000000
-0.0666220188 -0.7476248741 0.6487730145 0.0000000000
-0.0675668716 -0.7502213120 0.6494827271 0.0000000000
-0.0683027506 -0.7528047562 0.6500354409 0.0000000000
-0.0689642429 -0.7553819418 0.6505322456 0.0000000000
-0.0694162846 -0.7579483390 0.6508717537 0.0000000000
-0.0697093010 -0.7605071664 0.6510918140 0.0000000000
-0.0699242353 -0.7630621195 0.6512532234 0.0000000000
-0.0701241493 -0.7656156421 0.6514034867 0.0000000000
-0.0702463388 -0.7681660652 0.6514950991 0.0000000000
-0.0701673031 -0.7707107663 0.6514357328 0.0000000000
-0.0699343681 -0.7732521296 0.6512608528 0.0000000000
-0.0695010424 -0.7757902741 0.6509354711 0.0000000000
-0.0690275431 -0.7783296108 0.6505798101 0.0000000000
-0.0685012341 -0.7808701396 0.6501844525 0.0000000000
-0.0678751469 -0.7834116220 0.6497142315 0.0000000000
-0.0670521259 -0.7859534621 0.6490961313 0.0000000000
-0.0661116838 -0.7884978652 0.6483898163 0.0000000000
-0.0649530888 -0.7910447717 0.6475196481 0.0000000000
-0.0636907816 -0.7935962677 0.6465716958 0.0000000000
-0.0622613430 -0.7961529493 0.6454980969 0.0000000000
-0.0605750084 -0.7987157702 0.6442315578 0.0000000000
-0.0586469173 -0.8012864590 0.6427834034 0.0000000000
-0.0565048456 -0.8038665652 0.6411745548 0.0000000000
-0.0541145802 -0.8064576983 0.6393793821 0.0000000000
-0.0513122082 -0.8090628982 0.6372746825 0.0000000000
-0.0479912758 -0.8116859794 0.6347805262 0.0000000000
-0.0439949036 -0.8143324256 0.6317789555 0.0000000000
-0.0390495062 -0.8170107603 0.6280648112 0.0000000000
-0.0315735340 -0.8197541833 0.6224497557 0.0000000000
-0.0348781347 -0.7171616554 0.6216461062 0.0000000000
-0.0418701172 -0.7202727795 0.6269171238 0.0000000000
-0.0467575788 -0.7232122421 0.6306015849 0.0000000000
-0.0505300760 -0.7260578871 0.6334456801 0.0000000000
-0.0537687540 -0.7288533449 0.6358872652 0.0000000000
-0.0566914082 -0.7316153049 0.6380905509 0.0000000000
-0.0589572191 -0.7343263030 0.6397986412 0.0000000000
-0.0608779192 -0.7370079756 0.6412466764 0.0000000000
-0.0625542402 -0.7396679521 0.6425103545 0.0000000000
-0.0640417337 -0.7423108220 0.6436316967 0.0000000000
-0.0653138161 -0.7449365258 0.6445906758 0.0000000000
-0.0664315224 -0.7475493550 0.6454333663 0.0000000000
-0.0673505068 -0.7501483560 0.6461260319 0.0000000000
-0.0681221485 -0.7527370453 0.6467078924 0.0000000000
-0.0687515736 -0.7553166747 0.6471822858 0.0000000000
-0.0691820383 -0.7578860521 0.6475068331 0.0000000000
-0.0695254803 -0.7604504228 0.6477656960 0.0000000000
-0.0698028803 -0.7630110979 0.6479749680 0.0000000000
-0.0699962378 -0.7655679584 0.6481207013 0.0000000000
-0.0701024532 -0.7681214809 0.6482007504 0.0000000000
-0.0699950457 -0.7706689239 0.6481198072 0.0000000000
-0.0697487593 -0.7732136250 0.6479340196 0.0000000000
-0.0692996979 -0.7757551074 0.6475955844 0.0000000000
-0.0688338280 -0.7782982588 0.6472443342 0.0000000000
-0.0683227777 -0.7808427215 0.6468591094 0.0000000000
-0.0677076578 -0.7833880186 0.6463953853 0.0000000000
-0.0668966770 -0.7859336734 0.6457840800 0.0000000000
-0.0659464598 -0.7884815335 0.6450676918 0.0000000000
-0.0647834539 -0.7910320163 0.6441909075 0.0000000000
-0.0635068417 -0.7935870886 0.6432285309 0.0000000000
-0.0620924234 -0.7961474657 0.6421622038 0.0000000000
-0.0603774786 -0.7987138629 0.6408693194 0.0000000000
-0.0584435463 -0.8012883067 0.6394113898 0.0000000000
-0.0562858582 -0.8038722277 0.6377847791 0.0000000000
-0.0538685322 -0.8064672947 0.6359624863 0.0000000000
-0.0510038137 -0.8090768456 0.6338027716 0.0000000000
-0.0476422310 -0.8117043972 0.6312686205 0.0000000000
-0.0435969830 -0.8143556118 0.6282189488 0.0000000000
-0.0385693312 -0.8170394897 0.6244286895 0.0000000000
-0.0307037830 -0.8197940588 0.6184991598 0.0000000000
-0.0340803862 -0.7169991732 0.6177483797 0.0000000000
-0.0412560701 -0.7201287150 0.6231781840 0.0000000000
-0.0462557077 -0.7230807543 0.6269614100 0.0000000000
-0.0500572920 -0.7259330750 0.6298380494 0.0000000000
-0.0533218384 -0.7287347913 0.6323083043 0.0000000000
-0.0562745333 -0.7315031290 0.6345427036 0.0000000000
-0.0586099625 -0.7342224717 0.6363098621 0.0000000000
-0.0606036186 -0.7369123697 0.6378185153 0.0000000000
-0.0622707605 -0.7395759225 0.6390799880 0.0000000000
-0.0637992620 -0.7422248721 0.6402365565 0.0000000000
-0.0650924444 -0.7448555231 0.6412151456 0.0000000000
-0.0662063360 -0.7474719882 0.6420580149 0.0000000000
-0.0671395063 -0.7500754595 0.6427642107 0.0000000000
-0.0679419041 -0.7526692152 0.6433714032 0.0000000000
-0.0685710907 -0.7552525401 0.6438474655 0.0000000000
-0.0690228939 -0.7578263879 0.6441892385 0.0000000000
-0.0693498850 -0.7603937984 0.6444368362 0.0000000000
-0.0696767569 -0.7629597783 0.6446841955 0.0000000000
-0.0698528290 -0.7655196190 0.6448174119 0.0000000000
-0.0699716806 -0.7680770755 0.6449072361 0.0000000000
-0.0698314905 -0.7706272602 0.6448012590 0.0000000000
-0.0695310831 -0.7731742859 0.6445738673 0.0000000000
-0.0691227913 -0.7757203579 0.6442649364 0.0000000000
-0.0686663389 -0.7782673240 0.6439195275 0.0000000000
-0.0681930780 -0.7808160782 0.6435613632 0.0000000000
-0.0675505400 -0.7833645344 0.6430752277 0.0000000000
-0.0667403936 -0.7859137654 0.6424622536 0.0000000000
-0.0657800436 -0.7884651423 0.6417354345 0.0000000000
-0.0645968914 -0.7910190821 0.6408402324 0.0000000000
-0.0633151531 -0.7935777903 0.6398702860 0.0000000000
-0.0618760586 -0.7961418033 0.6387813687 0.0000000000
-0.0601704121 -0.7987120152 0.6374906898 0.0000000000
-0.0582333803 -0.8012902141 0.6360248923 0.0000000000
-0.0560402870 -0.8038780093 0.6343654394 0.0000000000
-0.0536137819 -0.8064770103 0.6325292587 0.0000000000
-0.0507073402 -0.8090907931 0.6303299665 0.0000000000
-0.0473202467 -0.8117226362 0.6277669668 0.0000000000
-0.0432052612 -0.8143787980 0.6246531606 0.0000000000
-0.0379276276 -0.8170706630 0.6206596494 0.0000000000
-0.0298041105 -0.8198345900 0.6145124435 0.0000000000
-0.0330830812 -0.7168220282 0.6136861444 0.0000000000
-0.0405573845 -0.7199784517 0.6193631291 0.0000000000
-0.0456889868 -0.7229446769 0.6232607961 0.0000000000
-0.0495976210 -0.7258087993 0.6262295246 0.0000000000
-0.0529251099 -0.7286190391 0.6287568808 0.0000000000
-0.0559461117 -0.7313959002 0.6310513616 0.0000000000
-0.0583301783 -0.7341222763 0.6328621507 0.0000000000
-0.0603028536 -0.7368150949 0.6343604326 0.0000000000
-0.0620274544 -0.7394858003 0.6356703043 0.0000000000
-0.0635555983 -0.7421386838 0.6368311048 0.0000000000
-0.0648646355 -0.7447739840 0.6378253102 0.0000000000
-0.0659819841 -0.7473944426 0.6386739612 0.0000000000
-0.0669422150 -0.7500029206 0.6394032836 0.0000000000
-0.0677375793 -0.7526001930 0.6400074363 0.0000000000
-0.0683922768 -0.7551882863 0.6405045986 0.0000000000
-0.0688707829 -0.7577667832 0.6408681273 0.0000000000
-0.0692372322 -0.7603392601 0.6411463618 0.0000000000
-0.0695451498 -0.7629081011 0.6413803101 0.0000000000
-0.0697283745 -0.7654717565 0.6415194869 0.0000000000
-0.0697987080 -0.7680314183 0.6415728927 0.0000000000
-0.0696717501 -0.7705855966 0.6414765120 0.0000000000
-0.0693366528 -0.7731354237 0.6412219405 0.0000000000
-0.0689506531 -0.7756856084 0.6409288049 0.0000000000
-0.0685081482 -0.7782365084 0.6405926943 0.0000000000
-0.0680700541 -0.7807894945 0.6402598619 0.0000000000
-0.0673853159 -0.7833408117 0.6397398710 0.0000000000
-0.0665651560 -0.7858935595 0.6391168833 0.0000000000
-0.0656024218 -0.7884485722 0.6383856535 0.0000000000
-0.0644116402 -0.7910061479 0.6374811530 0.0000000000
-0.0631066561 -0.7935684323 0.6364900470 0.0000000000
-0.0616588593 -0.7961361408 0.6353904009 0.0000000000
-0.0599337816 -0.7987101078 0.6340801120 0.0000000000
-0.0580172539 -0.8012920618 0.6326244473 0.0000000000
-0.0557889938 -0.8038837910 0.6309320927 0.0000000000
-0.0533448458 -0.8064867854 0.6290756464 0.0000000000
-0.0504149199 -0.8091047406 0.6268503070 0.0000000000
-0.0469787121 -0.8117410541 0.6242403388 0.0000000000
-0.0428222418 -0.8144019246 0.6210833192 0.0000000000
-0.0373426676 -0.8171010613 0.6169214249 0.0000000000
-0.0285953283 -0.8198804259 0.6102775335 0.0000000000
-0.0320336819 -0.7166407108 0.6095700264 0.0000000000
-0.0398614407 -0.7198280096 0.6155377626 0.0000000000
-0.0450985432 -0.7228066325 0.6195303798 0.0000000000
-0.0491153002 -0.7256827354 0.6225926280 0.0000000000
-0.0525088310 -0.7285017967 0.6251797676 0.0000000000
-0.0555742979 -0.7312858105 0.6275168061 0.0000000000
-0.0580089092 -0.7340194583 0.6293729544 0.0000000000
-0.0600379705 -0.7367195487 0.6309197545 0.0000000000
